ply
            format ascii 1.0
            element vertex 1450
            property float x
            property float y
            property float z
            property uchar blue
            property uchar green
            property uchar red
            end_header
194756357189009408000.000000 -1747275049433720422400.000000 374995532503003955200.000000 192 211 208
206448866204477030400.000000 -1644399793736672870400.000000 434954732808070758400.000000 242 234 234
206448866204477030400.000000 -1644399793736672870400.000000 434954732808070758400.000000 242 234 234
220838490986774528000.000000 -1622141500246301081600.000000 461676246361282969600.000000 242 234 234
220838490986774528000.000000 -1622141500246301081600.000000 461676246361282969600.000000 242 234 234
272929050071557734400.000000 -1565730286525113958400.000000 430658253683582566400.000000 63 59 58
251995778043818803200.000000 -1601179091160426086400.000000 382820674294513664000.000000 64 61 57
238229260244877312000.000000 -1622982956495038054400.000000 350655588623345254400.000000 64 61 57
320640955281571840000.000000 -1491306323561886515200.000000 572667327236433510400.000000 87 64 223
215323794210396569600.000000 -1675273090684157952000.000000 365652212543651840000.000000 111 88 87
223086854826622976000.000000 -1665566711985314201600.000000 383243381539812147200.000000 134 143 140
311372841917559603200.000000 -1499872948507377664000.000000 578190998776473190400.000000 62 37 172
325976143040820019200.000000 -1498403451216855040000.000000 597977095347372032000.000000 204 218 214
299622993370703462400.000000 -1508315878394744012800.000000 560462088461143244800.000000 117 112 114
290957247451968307200.000000 -1522509144144216064000.000000 543816471977079603200.000000 30 5 110
288140573539513139200.000000 -1524194365616108339200.000000 541706124334307737600.000000 21 2 91
346276481200029696000.000000 -1475226515761476403200.000000 639606969524971110400.000000 194 205 203
375052129864043724800.000000 -1416209239580134604800.000000 706467501951890227200.000000 76 85 91
344382077640953036800.000000 -1450958424966692864000.000000 653585280751212953600.000000 53 42 111
324406645167751168000.000000 -1531721292366374502400.000000 596943829295169536000.000000 150 167 166
342551830585357107200.000000 -1437722394040362598400.000000 664904368130097152000.000000 25 2 110
335867074766385971200.000000 -1439507121314568601600.000000 657267050412402278400.000000 8 3 2
287468854398314086400.000000 -1594973007728607232000.000000 530132390062430617600.000000 93 94 94
345391511778623488000.000000 -1462709565439711641600.000000 661195055702632038400.000000 172 185 184
310037759923532595200.000000 -1541672202451235635200.000000 584182787392038502400.000000 213 222 216
266312024168857600000.000000 -1634873624993621606400.000000 490848213991528857600.000000 163 182 183
259129052143550464000.000000 -1647994756954849280000.000000 476522841919979520000.000000 163 182 183
358563523640426496000.000000 -1422473487177062809600.000000 697190097714623283200.000000 18 5 5
338134405181813555200.000000 -1455458066352203366400.000000 658370355355294105600.000000 45 40 41
363604564551453900800.000000 -1437253232428790579200.000000 697319070428561408000.000000 163 170 166
352182755298744729600.000000 -1450695971541142732800.000000 678409449551744204800.000000 171 183 183
355249155789658521600.000000 -1422449078018926182400.000000 695006962402092646400.000000 36 10 9
182270399351252582400.000000 -1679320502937164185600.000000 392453660592203366400.000000 243 235 235
282725973552948838400.000000 -1579239106286295449600.000000 404446693623332864000.000000 188 206 205
279845005698059468800.000000 -1585478504920435916800.000000 396862427341678182400.000000 188 206 205
254515363914448896000.000000 -1630075796054658252800.000000 349519160892666675200.000000 57 58 56
270135136049797529600.000000 -1561904425865104588800.000000 423741885740220416000.000000 56 52 51
365336047975084851200.000000 -1419434546989052723200.000000 646900579907823206400.000000 62 59 55
252447759786206822400.000000 -1731226137910050816000.000000 305940457330416025600.000000 164 171 176
203017908889478758400.000000 -1650994444577747763200.000000 329512172435747635200.000000 199 189 206
415238730103442636800.000000 -1338142044838271385600.000000 778019760445692313600.000000 59 24 173
415238730103442636800.000000 -1338142044838271385600.000000 778019760445692313600.000000 59 24 173
309917610790407372800.000000 -1501390824309522432000.000000 570796728104098201600.000000 238 230 230
241685080266558668800.000000 -1617704970828224921600.000000 426804025623576576000.000000 113 85 84
266008558959591424000.000000 -1556747386477346816000.000000 492124417137888460800.000000 68 32 32
255857317856149504000.000000 -1600742804946524569600.000000 458209568662277324800.000000 114 104 106
250213854524263628800.000000 -1618349614495589990400.000000 443043839853618790400.000000 173 180 176
296482513283868262400.000000 -1515193103724157337600.000000 552123832080741171200.000000 87 47 48
256807405853710745600.000000 -1610459409103506636800.000000 456523632507826995200.000000 111 93 93
336086509799499366400.000000 -1482229635172270080000.000000 620751994376054374400.000000 156 164 166
269756381781819392000.000000 -1547938319217931059200.000000 508254252717362380800.000000 24 13 50
299014963440543334400.000000 -1507139620855349248000.000000 564674647360641433600.000000 16 1 92
328667527603290112000.000000 -1483474282334912512000.000000 614108305316380672000.000000 68 42 45
335020478300789145600.000000 -1468949403878503219200.000000 631741668071256883200.000000 50 17 27
317076201145368576000.000000 -1539505065032889139200.000000 577097589438231347200.000000 136 142 141
233950263355270758400.000000 -1692173573963540070400.000000 404137785831509196800.000000 136 142 141
351430964223252889600.000000 -1444780379081382297600.000000 666073588795074150400.000000 122 122 121
300701421863016857600.000000 -1498865466002846515200.000000 582856391539870924800.000000 23 4 78
337502598312702771200.000000 -1438412227635629260800.000000 658807026398265344000.000000 10 2 2
301189302660051763200.000000 -1507563812441345228800.000000 586723648812666060800.000000 127 138 137
323411009901009305600.000000 -1470657825045741568000.000000 630664311602780569600.000000 39 14 131
294302264189360537600.000000 -1568382638424798003200.000000 554107076179342131200.000000 194 206 200
265882774829373849600.000000 -1581534556711603404800.000000 517995650861550796800.000000 68 66 62
364285821956023910400.000000 -1414231218161765580800.000000 708572461987685990400.000000 55 23 23
348649859511956275200.000000 -1434809897689546752000.000000 681450753689754009600.000000 111 105 105
274457811038817484800.000000 -1598130365318928793600.000000 524670071271220838400.000000 161 168 165
308036428858654720000.000000 -1532427508684895027200.000000 592376842822457753600.000000 144 151 148
251799542706051481600.000000 -1639413508504708710400.000000 484302381466727219200.000000 205 224 221
132061929295314944000.000000 -1740187267627587993600.000000 383839069451950489600.000000 63 64 62
535345944347856076800.000000 -1152103797809269964800.000000 1032462529104917299200.000000 89 64 224
535345944347856076800.000000 -1152103797809269964800.000000 1032462529104917299200.000000 89 64 224
203086435951679897600.000000 -1677075410144408371200.000000 346047590366917427200.000000 82 41 43
203086435951679897600.000000 -1677075410144408371200.000000 346047590366917427200.000000 82 41 43
314242567266054963200.000000 -1518968276898126233600.000000 568311007191603609600.000000 202 219 215
271959170864696524800.000000 -1551940431591872921600.000000 503774017712082124800.000000 67 26 26
288397034626691891200.000000 -1554697237096195686400.000000 525756993490858803200.000000 180 183 182
353761818922975232000.000000 -1440520101377238630400.000000 664441143881315123200.000000 126 132 131
350258582462346035200.000000 -1462147824949080883200.000000 649614724360988262400.000000 188 203 203
398144622826409164800.000000 -1388908145960130969600.000000 743704552298617241600.000000 148 160 156
381649886825467084800.000000 -1409523109371628748800.000000 714478048891633664000.000000 156 167 165
385631850648829952000.000000 -1403379478200267571200.000000 723066499142936166400.000000 219 230 227
307433649096517222400.000000 -1493870164775534592000.000000 586036893849957171200.000000 43 15 143
381175062729012019200.000000 -1390845155594783948800.000000 725870528671671910400.000000 53 20 26
406312235002180403200.000000 -1364328893374686822400.000000 768688260236338790400.000000 111 123 125
297860256329052979200.000000 -1502620298211701555200.000000 574252273247872614400.000000 78 76 76
374809440160002867200.000000 -1433943592478022041600.000000 699990388903824588800.000000 235 237 235
419070335711707136000.000000 -1346364742546594201600.000000 794236182565853593600.000000 210 221 218
419070335711707136000.000000 -1346364742546594201600.000000 794236182565853593600.000000 210 221 218
416894787029408153600.000000 -1347405210399958630400.000000 791773111592891187200.000000 90 99 101
418033441271132979200.000000 -1344661928888657510400.000000 795462467884312166400.000000 84 90 89
347766731772526592000.000000 -1424445791134967398400.000000 676591517026379366400.000000 7 4 3
396447581604518297600.000000 -1394080578510677606400.000000 750318444593178214400.000000 162 183 181
369708393401889587200.000000 -1443155080993203814400.000000 697460742501800345600.000000 162 183 181
384255262090854400000.000000 -1386255024402307481600.000000 741601131579100364800.000000 115 110 110
395928529652835942400.000000 -1370700673208811520000.000000 762505266548703232000.000000 129 123 120
297243127940173004800.000000 -1558346186335295897600.000000 570239330684397158400.000000 208 223 220
244356288790659072000.000000 -1655846589391123251200.000000 485105189881747865600.000000 99 114 110
203360269322577510400.000000 -1733541379544658739200.000000 409156479168702054400.000000 194 213 210
285585281028771020800.000000 -1601262434141811507200.000000 556252278340714496000.000000 190 205 201
285085552993946828800.000000 -1611857767991712153600.000000 555748097283797811200.000000 115 129 125
330075259828122419200.000000 -1523870009685914419200.000000 643906609745389158400.000000 102 113 110
335679827936175718400.000000 -1493231678373285068800.000000 665217069237036646400.000000 52 58 54
391910281945756467200.000000 -1399125577663565004800.000000 765004621405382246400.000000 201 216 212
480043093323048550400.000000 -1236951350906139443200.000000 914955577396822016000.000000 235 230 229
368303657346242969600.000000 -1419446311763469926400.000000 688746453144698880000.000000 53 19 20
354888955780399104000.000000 -1459207401002919526400.000000 653068675212902400000.000000 165 176 174
397671228095070208000.000000 -1385563321637273600000.000000 741668861495371366400.000000 200 211 209
192508226995381862400.000000 -1713021743791289139200.000000 330844560626286592000.000000 186 186 187
368331035185774592000.000000 -1409906619027397017600.000000 694560450730052812800.000000 26 3 146
352568079148698828800.000000 -1437261368814836121600.000000 662690391516407398400.000000 190 200 197
346315843716304076800.000000 -1489204057329578803200.000000 630561342338839347200.000000 169 190 188
426284863720731443200.000000 -1325887987746707865600.000000 808933959225730662400.000000 134 130 131
450372304755071385600.000000 -1293573780811022336000.000000 853563466050646835200.000000 144 150 149
370181650694275072000.000000 -1413029781806094745600.000000 700778793716521369600.000000 53 14 16
419331524698885324800.000000 -1352269449841239654400.000000 788540272529322803200.000000 138 144 143
441363016428237619200.000000 -1300184704424188313600.000000 839957779315058278400.000000 123 120 120
414457444628535705600.000000 -1338778332217265356800.000000 789620432752449945600.000000 94 97 102
428698181792536985600.000000 -1316837687636158054400.000000 817123066853824921600.000000 136 134 140
442381219171139584000.000000 -1307669190025622323200.000000 838316153479207321600.000000 226 236 230
444102092307562496000.000000 -1298947753842940313600.000000 844717785054026137600.000000 173 188 190
414585015465148416000.000000 -1334862421554941132800.000000 793917269218217164800.000000 92 98 107
406213691272540979200.000000 -1341325460854171238400.000000 782326602467272294400.000000 7 3 2
416898607832314675200.000000 -1327004871658202726400.000000 802039636490505420800.000000 78 74 73
379440693087358156800.000000 -1396385044931333324800.000000 727428261770323558400.000000 55 34 36
303167186639467315200.000000 -1570643014429179904000.000000 559944273460042137600.000000 66 88 105
437818080989125017600.000000 -1302324683905328742400.000000 839550795086036992000.000000 27 11 12
452236114403105177600.000000 -1284625075574879027200.000000 864298547828437811200.000000 167 178 179
449435410897043456000.000000 -1285475987623614873600.000000 860990227291622604800.000000 66 25 23
428423523787918540800.000000 -1320488066240374374400.000000 821728756135834419200.000000 216 225 221
428423523787918540800.000000 -1320488066240374374400.000000 821728756135834419200.000000 216 225 221
500454042352012492800.000000 -1204988767789016678400.000000 954766639439754035200.000000 216 225 221
500454042352012492800.000000 -1204988767789016678400.000000 954766639439754035200.000000 216 225 221
467803769687297228800.000000 -1259383147331374284800.000000 893897345872586342400.000000 97 99 97
446564476085757542400.000000 -1284236068360971878400.000000 859218089425554636800.000000 237 229 229
356879786509231718400.000000 -1464835581123179315200.000000 687314669103008972800.000000 188 203 201
405208765132544409600.000000 -1373344338966636134400.000000 779795856553620275200.000000 195 214 211
345883020964030054400.000000 -1476021572619521228800.000000 692572808584940748800.000000 171 147 140
390152520194221670400.000000 -1398052674217181184000.000000 767431408494628044800.000000 171 147 140
365313343059971276800.000000 -1423686688307150848000.000000 645130311211522457600.000000 62 59 55
479895428911438233600.000000 -1236780706701508608000.000000 912911365378460876800.000000 88 63 227
507277831416315904000.000000 -1192461482057950822400.000000 970384212551847116800.000000 119 122 123
534579584743296204800.000000 -1151693130216295628800.000000 1023402993096694169600.000000 45 26 125
537874986018485043200.000000 -1148932036616624537600.000000 1028743870828616089600.000000 121 103 114
552903000995764633600.000000 -1113230124404598374400.000000 1064464364787151667200.000000 92 98 97
225973017873953587200.000000 -1756752289909335654400.000000 352645924571945369600.000000 120 162 191
496201846058332979200.000000 -1211090837420847923200.000000 947596504212701184000.000000 134 139 136
545493227209438003200.000000 -1142316495054621900800.000000 1039344812187818393600.000000 162 158 169
516967497538417459200.000000 -1173453015085796556800.000000 989404554249581363200.000000 214 222 218
520258775645002137600.000000 -1177343197176030822400.000000 991116273951703040000.000000 6 3 2
500434745922945024000.000000 -1204384806051879321600.000000 955230523395512729600.000000 98 107 112
514107722770153472000.000000 -1178253702754992128000.000000 982915566475935744000.000000 128 134 133
527497080592977100800.000000 -1165680237535559680000.000000 1003972203708311142400.000000 235 228 227
527497080592977100800.000000 -1165680237535559680000.000000 1003972203708311142400.000000 235 228 227
520231012976400793600.000000 -1176437749350557286400.000000 990697689875008716800.000000 235 228 227
510826890024032665600.000000 -1188579986109575987200.000000 974282750930452480000.000000 98 100 98
491025510241507737600.000000 -1220390726670902886400.000000 937154112430224179200.000000 186 199 195
498409995260395520000.000000 -1207761736114267750400.000000 951154853693672652800.000000 197 208 207
480713795415991910400.000000 -1236022593434157056000.000000 918798700389387468800.000000 207 222 218
394444848662315008000.000000 -1349998518525231104000.000000 772652769312610713600.000000 230 222 223
404135614296044339200.000000 -1377527101101021593600.000000 772731549320740864000.000000 174 195 193
449675929065619456000.000000 -1294106384243517030400.000000 861434704867151052800.000000 196 215 212
509759978916020224000.000000 -1192057521485905920000.000000 969569034631013990400.000000 69 68 64
393252978057805824000.000000 -1409511454548374323200.000000 753461178678850355200.000000 68 77 75
421453307262586060800.000000 -1352974126843481292800.000000 808330492268825804800.000000 116 130 126
433181303015840153600.000000 -1330176632850848153600.000000 835678974839986585600.000000 81 87 85
523021188658626560000.000000 -1166361165086641356800.000000 990675259837802086400.000000 57 63 62
523021188658626560000.000000 -1166361165086641356800.000000 990675259837802086400.000000 57 63 62
523021188658626560000.000000 -1166361165086641356800.000000 990675259837802086400.000000 57 63 62
459857819055685632000.000000 -1273843814308721459200.000000 855821533080610406400.000000 187 205 204
295443034990968832000.000000 -1646720313027094118400.000000 394384540449531494400.000000 117 190 155
355341872107670732800.000000 -1514674574040498176000.000000 561935873847014195200.000000 69 171 123
496565729431545446400.000000 -1211068957139455180800.000000 949248520433434624000.000000 62 57 56
496615262430376755200.000000 -1211370553178954137600.000000 948675125119549440000.000000 85 63 223
492520681128538931200.000000 -1217559924034030796800.000000 940008884420581785600.000000 83 61 218
485322838208466124800.000000 -1228312927851354521600.000000 925183509436301312000.000000 230 219 224
375656009137808998400.000000 -1391179407129627852800.000000 708665535646977228800.000000 80 77 74
392158084378866483200.000000 -1367348152304559718400.000000 741968038609289216000.000000 73 24 25
440573539591703756800.000000 -1293250964197107302400.000000 838918246046577459200.000000 9 4 1
488470685023207424000.000000 -1224395917677402521600.000000 931732860398311833600.000000 102 95 95
450841768732341043200.000000 -1286568352425810329600.000000 855135932605110681600.000000 91 68 72
448728864725034598400.000000 -1295089237687585996800.000000 848594333200075980800.000000 200 211 208
442065989187456204800.000000 -1302796704247132979200.000000 836887228167749632000.000000 98 71 82
459602732358041600000.000000 -1266703255944455782400.000000 876010765589833318400.000000 115 109 109
466703048596730675200.000000 -1260679471540522188800.000000 887766469036107366400.000000 55 30 35
475407937129414656000.000000 -1246316881000372633600.000000 905429958409584640000.000000 128 125 125
434901708859821260800.000000 -1303839151221427404800.000000 828645014128033792000.000000 31 10 65
472459431772789145600.000000 -1249758022541823180800.000000 900377537553209753600.000000 135 123 126
487495308258207334400.000000 -1226590542886443417600.000000 929798049786914406400.000000 204 213 210
477605915848920268800.000000 -1241213277877724774400.000000 911142306144950681600.000000 129 119 122
480134407763735347200.000000 -1236561574034092851200.000000 916669716024524800000.000000 115 114 114
480624460096235110400.000000 -1235851949229526220800.000000 917717770508120883200.000000 70 32 32
481109234772921548800.000000 -1235281632548198809600.000000 918776820107994726400.000000 125 130 132
483138328506400768000.000000 -1232492941206670540800.000000 922413069987794124800.000000 54 28 43
486433070074612940800.000000 -1228293906300193996800.000000 928254555363842457600.000000 115 126 130
488280359560439398400.000000 -1223858806247233945600.000000 932391467863349657600.000000 232 226 223
491079606213594316800.000000 -1220215464517435392000.000000 937335421897644441600.000000 140 147 144
487187390026848665600.000000 -1226570531774817894400.000000 930088870612461158400.000000 162 172 168
504090896963207168000.000000 -1198981366108336947200.000000 961578333876151910400.000000 209 224 220
453116630802418892800.000000 -1291371129167098675200.000000 864394590169124044800.000000 64 98 122
465269120507366604800.000000 -1268073907139641344000.000000 888826178342957875200.000000 62 86 100
465269120507366604800.000000 -1268073907139641344000.000000 888826178342957875200.000000 62 86 100
497554245360497459200.000000 -1210039374451205734400.000000 948918996798590156800.000000 72 69 65
464484509009785651200.000000 -1267665108716434227200.000000 888630190395306803200.000000 195 213 210
458790715533138329600.000000 -1281378437640382054400.000000 878571308268598067200.000000 100 110 107
458790715533138329600.000000 -1281378437640382054400.000000 878571308268598067200.000000 100 110 107
467519985736168243200.000000 -1261558750989254656000.000000 896366848988571238400.000000 52 56 51
459214247412157644800.000000 -1280831320654400716800.000000 881030640902026035200.000000 69 77 76
451900158625238220800.000000 -1293402037094763724800.000000 871203315924126924800.000000 126 120 107
477047803746661171200.000000 -1251684806718337843200.000000 896306155946718003200.000000 0 0 0
474857851462038323200.000000 -1250333726830126694400.000000 894315490144629555200.000000 188 206 205
472087302062368358400.000000 -1262325330496140083200.000000 883139119375030681600.000000 88 148 122
472543764314639564800.000000 -1260835272338178048000.000000 885980312396785254400.000000 90 99 98
435144481027234201600.000000 -1339629024363675648000.000000 789502675057115136000.000000 161 170 174
493185280931948134400.000000 -1216529131882990796800.000000 941321371450657996800.000000 84 60 221
471200820812473958400.000000 -1261177440356741939200.000000 891047466708972339200.000000 161 173 174
469900648312628838400.000000 -1262144790686859264000.000000 889068950510370816000.000000 123 134 135
489181024510332108800.000000 -1223278593961256550400.000000 932953538207468748800.000000 194 214 209
484288032839984742400.000000 -1231058738239399526400.000000 923061671897019187200.000000 108 73 75
471321492213622374400.000000 -1249155160316313600000.000000 898204187894166323200.000000 69 22 20
479917913924226252800.000000 -1240292216987136819200.000000 913276568165626675200.000000 117 124 121
479917913924226252800.000000 -1240292216987136819200.000000 913276568165626675200.000000 117 124 121
472964767316914995200.000000 -1247213422781661184000.000000 901489363711216844800.000000 62 16 12
481714350997268070400.000000 -1236374657057370931200.000000 917569776243022233600.000000 159 165 166
473508970597082726400.000000 -1253301748518145228800.000000 899366976416120832000.000000 161 179 178
486607507594359603200.000000 -1228153058860675891200.000000 927738224703438848000.000000 110 118 117
483007706525020979200.000000 -1235162885292399001600.000000 919959729692737536000.000000 138 143 139
509809896743921254400.000000 -1190241897934959411200.000000 974180716251394867200.000000 175 190 182
513113489380737024000.000000 -1184573915493774131200.000000 980396365434375372800.000000 114 101 102
502866975594748313600.000000 -1201562359703378329600.000000 960012849220524441600.000000 140 154 153
484915853979444838400.000000 -1231961217383478067200.000000 924248594699203379200.000000 231 235 233
487692065863997849600.000000 -1226794282391070310400.000000 929991783735728537600.000000 231 235 233
501011219869387980800.000000 -1202540155393959526400.000000 957212613006904524800.000000 138 151 151
505844233180440166400.000000 -1195092393480893235200.000000 966181549256998912000.000000 174 186 187
505844233180440166400.000000 -1195092393480893235200.000000 966181549256998912000.000000 174 186 187
506669526608248832000.000000 -1193022782743930470400.000000 968105914507932467200.000000 90 100 107
500437109872944742400.000000 -1205349737456415539200.000000 955003364293214208000.000000 68 31 31
491415232137972940800.000000 -1219089564610592768000.000000 938105739744064307200.000000 79 73 71
483680057885406003200.000000 -1234497790708757299200.000000 921968537436684288000.000000 191 198 197
487553362472153907200.000000 -1224950401391289958400.000000 931010041454211891200.000000 237 226 226
488158698598825984000.000000 -1224043304298374758400.000000 932129894047101747200.000000 237 226 226
508162058667373363200.000000 -1190619360276774912000.000000 970315712977436672000.000000 152 165 163
506703061712896000000.000000 -1193231470050882355200.000000 967284469370821017600.000000 143 150 148
506703061712896000000.000000 -1193231470050882355200.000000 967284469370821017600.000000 143 150 148
482270319051853004800.000000 -1233251494278673203200.000000 921363146334430822400.000000 243 235 235
482270319051853004800.000000 -1233251494278673203200.000000 921363146334430822400.000000 243 235 235
484047404720245964800.000000 -1232317459150877491200.000000 923939741882961100800.000000 94 97 97
485721411173534924800.000000 -1227743160925840998400.000000 928316457868486246400.000000 72 69 65
485721411173534924800.000000 -1227743160925840998400.000000 928316457868486246400.000000 72 69 65
467262754990850048000.000000 -1264386584944731750400.000000 892585463573905408000.000000 61 85 101
467408275354786201600.000000 -1262440449363568230400.000000 894012189862107545600.000000 195 212 209
465021235610884505600.000000 -1269625318046433280000.000000 889968515948635750400.000000 100 109 106
468448963110476185600.000000 -1259906185012707328000.000000 898028046131396608000.000000 53 56 51
454861363341164544000.000000 -1288442469995354521600.000000 872893320271600025600.000000 192 209 206
476137023289792921600.000000 -1245205494647016652800.000000 912939622827294720000.000000 70 79 74
474348392749308313600.000000 -1248208260902472908800.000000 909956757732301209600.000000 70 79 74
466416735768857804800.000000 -1261979644040367308800.000000 896539417338550681600.000000 150 157 154
466997387859486310400.000000 -1260146978059190272000.000000 898426069340651520000.000000 102 108 105
466087047207269171200.000000 -1261660016010172825600.000000 896935681329201152000.000000 102 108 105
493383248000529203200.000000 -1216213901899307417600.000000 941782066822696140800.000000 134 169 191
471433752350818304000.000000 -1260210639782438502400.000000 882571936301842432000.000000 181 192 189
473375489885470720000.000000 -1256319578082902016000.000000 887827107102379212800.000000 181 192 189
474855542487619993600.000000 -1256318148717785907200.000000 890700460839246233600.000000 43 210 135
477392225764062003200.000000 -1250844340030065868800.000000 897747120910499840000.000000 99 138 129
495741370588620390400.000000 -1212726031113676390400.000000 946706119696528179200.000000 81 56 224
486459568304842342400.000000 -1228094125037427097600.000000 927329096426743398400.000000 194 214 209
491184884451953868800.000000 -1219693086543079014400.000000 937350045402293862400.000000 71 28 27
488450838838326067200.000000 -1224518953028550656000.000000 931593772177398169600.000000 118 123 121
489822259691651072000.000000 -1221540485980068249600.000000 934797749060737433600.000000 109 98 100
482506219271592345600.000000 -1235980921943464345600.000000 918731520228930355200.000000 225 231 225
492105615489053491200.000000 -1218260202989761331200.000000 939221524143931392000.000000 88 78 83
491291811957755084800.000000 -1219532227991935385600.000000 937614038144122880000.000000 5 1 55
492265704382057676800.000000 -1218358939133935616000.000000 939374906016006144000.000000 59 93 117
488611367535981363200.000000 -1225057493823835340800.000000 931719006551801856000.000000 126 132 131
488302844573227417600.000000 -1225632428453999411200.000000 931069305130949017600.000000 126 132 131
486498161162977280000.000000 -1228265978704848486400.000000 927767251810412134400.000000 154 166 165
489817641742814412800.000000 -1222324767624160870400.000000 934649754795638784000.000000 188 201 203
489327589410314649600.000000 -1222587990707850444800.000000 934013467416644812800.000000 91 95 95
489582676107958681600.000000 -1223177768744989491200.000000 934041614914315878400.000000 245 251 246
489061672523137024000.000000 -1223602290184473804800.000000 933268768191152128000.000000 223 235 233
490371575700887961600.000000 -1220696061049936281600.000000 936149818509413580800.000000 83 76 80
490856240426411622400.000000 -1220328934117421875200.000000 936911560165136793600.000000 89 85 86
490923200684543180800.000000 -1220406229784854528000.000000 936996882267452211200.000000 112 120 126
489957939426518630400.000000 -1221498044831236096000.000000 935365316962995404800.000000 65 32 32
488752544828987801600.000000 -1223175129917082828800.000000 933221049386506649600.000000 235 227 227
490216654512534323200.000000 -1221067256175473459200.000000 935958393535017779200.000000 243 236 232
498705269108034764800.000000 -1206799113684149862400.000000 951873934298238156800.000000 193 211 210
481595933594956595200.000000 -1233962438497193164800.000000 921060725661211033600.000000 70 69 65
469180028391784448000.000000 -1260616579475413401600.000000 895906868299091148800.000000 61 92 112
490548761999704064000.000000 -1220472090531358310400.000000 936813923532590284800.000000 70 69 65
477369300946622873600.000000 -1245749972805091328000.000000 911616800387917414400.000000 57 85 100
473945806566798131200.000000 -1250434332144068198400.000000 906116328543223808000.000000 89 105 99
475464616953826508800.000000 -1248093032083881984000.000000 908835310847551078400.000000 196 213 210
474789681741116211200.000000 -1251512073441614233600.000000 907264768438435840000.000000 108 122 120
474766537021351526400.000000 -1251819606843903180800.000000 907189286965189017600.000000 186 200 198
489374538556820684800.000000 -1222975788458967040000.000000 931540225961125478400.000000 55 62 61
494024483181848166400.000000 -1215086462676185907200.000000 943436831822499020800.000000 187 204 203
473830852626114150400.000000 -1258315081736152678400.000000 887718530329136332800.000000 180 191 193
485827349118871142400.000000 -1232568037850847641600.000000 920941483625178726400.000000 39 221 131
488046273534885888000.000000 -1225391965261004800000.000000 928520637177764249600.000000 53 54 52
474403588233022668800.000000 -1257322332687433728000.000000 889513867890550374400.000000 93 144 120
538763941169541939200.000000 -1117710634287785574400.000000 1064758814001070080000.000000 182 194 192
492422164886690201600.000000 -1217662398517739520000.000000 939564131967146393600.000000 54 50 49
491027379411274956800.000000 -1219870327817476505600.000000 936331677732647731200.000000 59 56 55
491803414718159257600.000000 -1218685274185059532800.000000 938143343041734246400.000000 63 59 58
491291702006592307200.000000 -1219497043619846553600.000000 936961587944200601600.000000 63 59 58
491171855239164723200.000000 -1219767083675628339200.000000 936685610525628825600.000000 61 57 56
495582601109569536000.000000 -1212058297702128025600.000000 947144604933685248000.000000 183 202 199
475897219803774976000.000000 -1250623338192882892800.000000 899661590556783411200.000000 104 112 103
493872970479540633600.000000 -1215479867936604160000.000000 942799115078388940800.000000 60 27 190
503983034872522342400.000000 -1194086890097292083200.000000 966637956533688729600.000000 141 150 159
474703864858568294400.000000 -1254733312657509580800.000000 898841739711532236800.000000 130 136 135
493960051800460492800.000000 -1215355843024991027200.000000 942943261052790374400.000000 196 188 191
492192421932066406400.000000 -1218146513487449292800.000000 939328286722988441600.000000 239 235 233
492839869354082304000.000000 -1217095050517807104000.000000 940676837734455705600.000000 195 212 208
498007519029048115200.000000 -1209223646774558720000.000000 950971455154159616000.000000 75 34 35
497206524808213299200.000000 -1210379123544188518400.000000 949397614210161049600.000000 87 60 61
494048672437659238400.000000 -1215082944238977024000.000000 943173718689972224000.000000 86 75 78
497319224750060339200.000000 -1210155262976773324800.000000 949630050968272896000.000000 68 32 33
492643386626198732800.000000 -1217581584413097984000.000000 940214712997301452800.000000 157 177 175
495299971645649715200.000000 -1213082602734564147200.000000 945632776445493248000.000000 54 19 19
493475497026099609600.000000 -1216030283457468825600.000000 941994602420345241600.000000 108 116 116
492708972494795571200.000000 -1217163000336403660800.000000 940537419660053708800.000000 130 121 131
493506008473770393600.000000 -1215965632173755596800.000000 942057934290105139200.000000 195 202 202
493187974735436185600.000000 -1216499994824854732800.000000 941435280855295590400.000000 26 6 96
492279833106474598400.000000 -1217875703773528064000.000000 939739394120613888000.000000 58 42 111
496039942971142963200.000000 -1211543066553352192000.000000 947017391438351564800.000000 165 174 171
495217013493334016000.000000 -1212978698885739315200.000000 945393632666451968000.000000 162 172 167
493983636324876288000.000000 -1215193994913382400000.000000 942949968073719808000.000000 82 88 87
493369888934251724800.000000 -1216204995855122432000.000000 941784925552928358400.000000 72 67 64
492112762314634035200.000000 -1218216992182789734400.000000 939448683246229913600.000000 205 220 216
493546305574928384000.000000 -1215916374052831232000.000000 942117417869167820800.000000 108 114 115
493292318388912128000.000000 -1216340125834176102400.000000 941640119871550259200.000000 209 223 220
490186857747421593600.000000 -1221010961180131328000.000000 936175327179177984000.000000 72 69 65
445741601583529984000.000000 -1304126563560928051200.000000 852003643879902412800.000000 63 87 99
486821747435031756800.000000 -1229051249909406105600.000000 929128117352110489600.000000 127 137 137
476799479045527961600.000000 -1248427723423376998400.000000 910068303186939084800.000000 86 94 93
448549314476218777600.000000 -1296015796136312832000.000000 859305280697637273600.000000 194 211 207
472261849533277798400.000000 -1256626451778214297600.000000 901853302060010700800.000000 169 186 184
470680916739280076800.000000 -1260015146615019929600.000000 899023818837091942400.000000 63 71 70
488853919801068748800.000000 -1224843418909907353600.000000 933702195674821427200.000000 100 110 110
467911686753563443200.000000 -1263987352272686284800.000000 896821112217586892800.000000 188 200 198
501204019233318502400.000000 -1204912241779723468800.000000 953907481053809868800.000000 60 61 59
433888151553546649600.000000 -1301960305751883776000.000000 849968392881307648000.000000 60 61 59
376078331554037760000.000000 -1411151596043527782400.000000 750796677175679385600.000000 40 41 38
416999955316604928000.000000 -1341277412196037427200.000000 818411309652508672000.000000 162 173 167
484305515074866380800.000000 -1235878337508592844800.000000 916777083334977126400.000000 82 143 118
480232759078839910400.000000 -1244403730768042393600.000000 906153876865312358400.000000 28 32 28
491673507419337523200.000000 -1219943665243049164800.000000 937108152844183142400.000000 121 132 132
488143250460455731200.000000 -1227505886316566937600.000000 927850154987146444800.000000 163 170 173
494310026351581593600.000000 -1214689758880884326400.000000 943935790199183769600.000000 62 58 55
488896855730133401600.000000 -1225568546828425625600.000000 931254133035578163200.000000 142 151 160
493910298899303628800.000000 -1215406090706380390400.000000 942868164408613273600.000000 201 193 194
495328998752623001600.000000 -1212086885004450201600.000000 946343940566338764800.000000 0 0 0
493226952422640844800.000000 -1216423578766724300800.000000 941495973897148825600.000000 220 213 219
494584959234106982400.000000 -1214248854718146150400.000000 944284445336351539200.000000 92 42 42
493906395633025024000.000000 -1215365408776152678400.000000 942867614652799385600.000000 75 29 31
494133169906253824000.000000 -1215010816276194918400.000000 943324461734140313600.000000 75 29 31
492402318701808844800.000000 -1217885929231666380800.000000 939755117136891084800.000000 191 211 206
492743112330838016000.000000 -1217335623661964492800.000000 940453526922854400000.000000 92 84 143
492027165334411673600.000000 -1218567956294375833600.000000 938975563392797900800.000000 71 73 73
493118815454049075200.000000 -1216581468636472934400.000000 941300480729730252800.000000 56 4 7
491459157627502592000.000000 -1219550150031468134400.000000 937839547978979737600.000000 163 174 175
492548883601791385600.000000 -1217550688136357478400.000000 940142035278705459200.000000 61 32 32
493374781760995328000.000000 -1216215221313260748800.000000 941790093257578905600.000000 54 76 94
492176479013463654400.000000 -1218170592792097587200.000000 939399535076468326400.000000 140 140 144
492819198535480115200.000000 -1217079107599204352000.000000 940738960141425049600.000000 107 99 94
493176979619158425600.000000 -1216590594582983475200.000000 941385253076231782400.000000 177 184 186
493176154985437593600.000000 -1216497795801599180800.000000 941430333052970598400.000000 100 82 156
493007929706387865600.000000 -1216801041108539801600.000000 941102788539056128000.000000 87 85 84
492991931812203724800.000000 -1216828418948071424000.000000 941077829625105612800.000000 214 223 220
493282037955192422400.000000 -1216380477910915481600.000000 941616700273878630400.000000 163 184 182
493438608410987724800.000000 -1216096144203972608000.000000 941924343627330355200.000000 72 69 65
492261306335546572800.000000 -1218294727654873497600.000000 939654072018298470400.000000 62 96 120
473266968087809228800.000000 -1253808183573898854400.000000 903053748855216537600.000000 62 96 120
493390504777272524800.000000 -1216168931873731379200.000000 941839241427340492800.000000 72 69 65
444244616502312960000.000000 -1306883149162925260800.000000 849189168990702796800.000000 59 86 99
494653238906191872000.000000 -1213931975467021107200.000000 944160750278226739200.000000 195 212 209
493333550074953728000.000000 -1216269867041161216000.000000 941738746064561766400.000000 205 222 218
493333550074953728000.000000 -1216269867041161216000.000000 941738746064561766400.000000 205 222 218
493333550074953728000.000000 -1216269867041161216000.000000 941738746064561766400.000000 205 222 218
492876428115705856000.000000 -1217098019199202099200.000000 940957213199538585600.000000 74 70 58
494361153642273177600.000000 -1214386183720455372800.000000 943535348064347750400.000000 64 65 57
498028794579045580800.000000 -1208373064579311206400.000000 949606521419438489600.000000 74 85 77
497230769039605760000.000000 -1210628382830205337600.000000 947779572898725888000.000000 60 61 59
492846246521523404800.000000 -1216986858573633945600.000000 940469909646108262400.000000 214 221 223
492318535915772313600.000000 -1218330681685101772800.000000 938911022060247449600.000000 180 194 190
492274940279730995200.000000 -1218479775461828198400.000000 938757530237009920000.000000 143 150 154
492271476818103500800.000000 -1218487801896710963200.000000 938748074437011046400.000000 143 150 154
491818038222808678400.000000 -1219403145326834483200.000000 937544219155759104000.000000 59 67 66
491443324660062617600.000000 -1220382480333694566400.000000 936414031153568153600.000000 184 191 191
492124746991376793600.000000 -1218847782003644825600.000000 938353129860313907200.000000 83 90 93
491961744392559001600.000000 -1219193028654766489600.000000 937920911839435161600.000000 97 99 104
491924800801865728000.000000 -1219365871882652876800.000000 937766210553407078400.000000 104 136 126
491341949687981670400.000000 -1220263623126731980800.000000 936510458323324108800.000000 179 196 192
494664948705027686400.000000 -1213532083087998976000.000000 944782853957222400000.000000 27 25 25
494605190248058060800.000000 -1213625871429848268800.000000 944652781731656499200.000000 0 0 0
493365545863322009600.000000 -1216206315269075763200.000000 941780637457580032000.000000 205 195 204
493166259380787609600.000000 -1216505932187644723200.000000 941386572490185113600.000000 79 66 66
493760215562112204800.000000 -1215562331308687360000.000000 942587459090042060800.000000 101 85 87
493261532063334400000.000000 -1216364974796963840000.000000 941575908392488140800.000000 74 43 46
493647020840032665600.000000 -1215736603901689856000.000000 942360959694720204800.000000 59 34 100
494234709805078937600.000000 -1214666669136701030400.000000 943610994464338739200.000000 244 250 245
494722508138741760000.000000 -1213881287980980633600.000000 944580983622362726400.000000 166 175 178
494722508138741760000.000000 -1213881287980980633600.000000 944580983622362726400.000000 166 175 178
493240971195894988800.000000 -1216385425713240473600.000000 941544792213422080000.000000 10 1 1
493240971195894988800.000000 -1216385425713240473600.000000 941544792213422080000.000000 10 1 1
493823052651639603200.000000 -1215462825506373632000.000000 942701918250493542400.000000 164 173 168
493270987863333273600.000000 -1216346612952779980800.000000 941601417062252544000.000000 77 36 38
493723326947000320000.000000 -1215613678501704499200.000000 942506535034237747200.000000 10 2 47
493723326947000320000.000000 -1215613678501704499200.000000 942506535034237747200.000000 10 2 47
493680775847005388800.000000 -1215649082776118886400.000000 942437595655176192000.000000 131 142 142
493424094857501081600.000000 -1216118244387690905600.000000 941898395152914841600.000000 235 239 236
493272362252867993600.000000 -1216343314417896652800.000000 941609333545972531200.000000 6 3 2
493437343972615782400.000000 -1216092845669089280000.000000 941926542650585907200.000000 58 93 117
493325963444722073600.000000 -1216259531631860121600.000000 941714556808750694400.000000 141 137 152
493514749591211212800.000000 -1215957825641198387200.000000 942080804131962880000.000000 168 179 172
493501445500515123200.000000 -1215983444262125568000.000000 942049358099408486400.000000 98 102 98
493800237785363251200.000000 -1215545398829619609600.000000 942566898222602649600.000000 71 68 64
493426513783082188800.000000 -1216112966731877580800.000000 941904662369193164800.000000 169 190 188
494022614012080947200.000000 -1215213896073845145600.000000 942951177536510361600.000000 71 68 64
494022614012080947200.000000 -1215213896073845145600.000000 942951177536510361600.000000 71 68 64
493902657293490585600.000000 -1215174753459896320000.000000 942836828327221657600.000000 99 115 123
493881271792330342400.000000 -1215283495159883366400.000000 942756014222580121600.000000 186 203 200
493818544653965721600.000000 -1215413677336612044800.000000 942627811166781440000.000000 191 211 207
493348943237742592000.000000 -1216225666673724620800.000000 941773820485487820800.000000 67 64 60
493348943237742592000.000000 -1216225666673724620800.000000 941773820485487820800.000000 67 64 60
493355760209834803200.000000 -1216230504524886835200.000000 941779757848277811200.000000 203 220 216
493355760209834803200.000000 -1216230504524886835200.000000 941779757848277811200.000000 203 220 216
493739214890021683200.000000 -1215508895043577446400.000000 942487953287728332800.000000 89 99 97
493864724142332313600.000000 -1215288333011045580800.000000 942692572401657446400.000000 196 210 207
516344349323375411200.000000 -1176110974494782259200.000000 981378998976118784000.000000 169 182 180
493676872580726784000.000000 -1215637647855190016000.000000 942352383504023552000.000000 64 76 74
493152680412184576000.000000 -1216596421994610688000.000000 941440888364597248000.000000 168 146 139
493632562262127411200.000000 -1215813679666796953600.000000 942224730204038758400.000000 61 62 60
492989183033134284800.000000 -1216770364734124851200.000000 940821863318159360000.000000 216 221 224
492869281290125312000.000000 -1217036116694558310400.000000 940479805250758246400.000000 166 175 175
492185275106485862400.000000 -1218525625096706457600.000000 938574021746334105600.000000 167 183 182
491827988803040051200.000000 -1219599738005880832000.000000 937449991009258700800.000000 115 124 120
491468448500757299200.000000 -1220351364154628505600.000000 936496604476814131200.000000 53 219 143
492805619566877081600.000000 -1217460638134042624000.000000 940188874474048716800.000000 96 138 119
492904355711051366400.000000 -1216911761929456844800.000000 940694869725151232000.000000 54 50 49
493164884991252889600.000000 -1216677126148089446400.000000 941197786343695974400.000000 91 99 99
492910348049422745600.000000 -1216916929634107392000.000000 940710042985614540800.000000 59 55 54
499501865282358476800.000000 -1204158966363534131200.000000 956535863600008396800.000000 107 115 105
494392434748083404800.000000 -1214185962653037363200.000000 944109842889860710400.000000 92 57 54
494343836334135705600.000000 -1214221366927451750400.000000 944014845085220864000.000000 130 140 137
493434375291220787200.000000 -1216099772592344268800.000000 941919945580819251200.000000 118 126 123
493456200597032140800.000000 -1216063268806302105600.000000 941965355411046400000.000000 68 49 76
493467360640054067200.000000 -1216045456717932134400.000000 941988005350578585600.000000 115 113 120
493465821323775180800.000000 -1216040618866769920000.000000 941988555106392473600.000000 156 174 173
493415408715641651200.000000 -1216128579796992000000.000000 941882342283149312000.000000 101 70 76
493663788392356249600.000000 -1215717252497040998400.000000 942391855971460710400.000000 76 53 55
493417387836571648000.000000 -1216132977843503104000.000000 941882342283149312000.000000 130 140 137
493788033206294937600.000000 -1215509994555205222400.000000 942645183450500300800.000000 64 45 46
494800133659662745600.000000 -1213680187304260403200.000000 944787691808384614400.000000 93 96 96
493122004037769625600.000000 -1216605547941121228800.000000 941289705515778048000.000000 64 32 34
494613931365498880000.000000 -1214076121441422540800.000000 944352395154948096000.000000 128 136 137
493235858466825830400.000000 -1216434024127188172800.000000 941516534764588236800.000000 9 1 42
493345259873789542400.000000 -1216247327052791808000.000000 941740945087817318400.000000 132 128 130
493384622390063923200.000000 -1216182126013264691200.000000 941820109925017190400.000000 132 128 130
493052295000568627200.000000 -1216721326515526041600.000000 941160073094863257600.000000 50 17 18
493506888083072614400.000000 -1215992130403984998400.000000 942058154192430694400.000000 147 142 157
493525854658651750400.000000 -1215926379608643993600.000000 942112689969168384000.000000 202 208 210
493458949376101580800.000000 -1216053483152814899200.000000 941971182822673612800.000000 128 138 141
493463787227263795200.000000 -1216047875643513241600.000000 941979209257556377600.000000 164 176 174
493485722484237926400.000000 -1216021817217934950400.000000 942017472262202982400.000000 91 88 87
493516069005164544000.000000 -1215974098413289472000.000000 942074646866847334400.000000 233 226 228
493337288414488166400.000000 -1216275144696974540800.000000 941724562364563456000.000000 171 179 177
493435639729592729600.000000 -1216097463617925939200.000000 941922584408725913600.000000 90 90 89
493468240249356288000.000000 -1216039629306304921600.000000 941986575985462476800.000000 177 186 180
493344050410998988800.000000 -1216236112034188492800.000000 941761176101768396800.000000 71 68 64
493375166590065049600.000000 -1216188723083031347200.000000 941816481536645529600.000000 71 68 64
493837401278382080000.000000 -1215380472085453209600.000000 942663765197009715200.000000 193 211 208
493608098128409395200.000000 -1215843586383072460800.000000 942215714208690995200.000000 68 65 61
