ply
            format ascii 1.0
            element vertex 2980
            property float x
            property float y
            property float z
            property uchar blue
            property uchar green
            property uchar red
            end_header
915.211105 331.740117 1702.881622 112 90 107
830.183125 411.810923 1609.719086 63 41 44
844.278336 395.707345 1590.134144 27 22 23
898.052311 345.526767 1667.933083 40 25 31
836.508942 401.358128 1603.162575 148 125 135
836.508942 401.358128 1603.162575 148 125 135
840.279293 394.339633 1585.906792 96 83 85
820.531559 414.105558 1611.250496 51 32 36
928.216743 310.236907 1845.520401 118 96 101
837.427139 393.774819 1583.393383 28 23 25
841.401863 388.897657 1613.689613 37 23 16
909.905624 326.998734 1822.842216 47 27 20
942.782688 301.891541 1786.738396 18 16 17
864.259911 365.716314 1617.222023 88 71 78
952.559662 294.438362 1817.694855 118 94 104
1020.354080 254.215908 2108.567810 156 128 114
850.019360 376.691103 1596.543884 74 60 62
949.502087 295.816636 1811.547852 143 127 130
837.312031 384.266877 1583.583450 178 146 142
916.028976 314.304328 1821.829796 42 29 35
926.268768 307.776308 1758.860397 179 145 137
823.460293 389.284611 1569.504738 24 18 20
875.513649 344.546199 1647.372055 109 89 107
878.365135 341.094112 1655.423355 108 87 103
828.001213 377.557611 1569.552040 198 164 151
820.969105 384.536529 1568.143559 79 70 81
816.660786 386.754894 1563.343525 17 15 15
809.295368 394.626093 1593.795967 42 24 17
810.508060 389.459610 1571.167755 118 94 108
809.626198 384.199071 1556.609821 22 17 18
806.866169 383.241606 1553.767681 68 62 68
790.316868 401.594782 1573.476315 137 115 130
802.055168 387.409163 1561.927509 141 120 125
800.655842 388.202405 1558.822441 141 120 125
798.784590 389.314866 1560.791874 76 60 73
784.314537 406.309509 1575.798035 61 45 52
782.766867 406.138086 1577.303410 67 50 63
785.981655 402.432871 1577.620983 72 57 64
1010.372925 254.057145 2041.368675 87 61 71
1024.540520 261.007786 2159.999466 117 95 93
1039.337063 243.959332 2151.673126 110 88 105
1027.190876 260.489249 2169.237900 76 92 86
1039.902306 247.736168 2169.583511 116 96 93
1041.187286 247.559905 2175.471497 116 96 93
1028.413296 248.467612 2110.750389 88 65 71
1039.671612 247.352004 2161.767960 118 100 106
790.853214 373.820162 1540.067291 118 96 101
1044.578266 250.663471 2199.807930 92 77 84
784.016514 375.071597 1532.681561 78 70 70
784.016514 375.071597 1532.681561 78 70 70
1044.707775 252.971697 2207.786179 131 110 113
785.240078 374.461150 1544.611168 85 74 79
1044.828796 253.254700 2208.429718 132 111 111
1043.607712 255.526352 2211.794662 128 107 107
1043.607712 255.526352 2211.794662 128 107 107
778.969336 373.301959 1528.896046 23 18 19
1053.203011 246.029687 2208.703613 118 99 96
756.107140 385.625577 1516.954327 59 42 54
745.407772 402.851725 1551.033783 91 73 79
1028.818798 248.512578 2107.048225 192 160 148
757.447290 379.650211 1510.485077 147 126 128
732.899714 401.794624 1524.790955 130 105 119
1052.307796 258.924961 2243.886948 167 133 128
1061.966133 254.755521 2260.767937 173 132 122
1063.837719 254.945874 2268.719673 173 132 122
1042.603302 266.401124 2227.630997 176 141 130
727.431774 400.871277 1546.475124 113 88 106
736.366606 373.105145 1486.779976 187 154 145
1073.675823 256.918645 2302.608490 168 135 127
715.170002 393.272114 1496.856403 196 163 155
1036.946869 272.520518 2220.008469 121 107 102
711.761284 400.651741 1523.101807 201 166 160
711.761284 400.651741 1523.101807 201 166 160
710.877228 389.711547 1486.982632 194 163 159
710.877228 389.711547 1486.982632 194 163 159
731.095457 368.242097 1485.380840 189 155 149
707.259417 395.200467 1502.611446 119 96 111
707.259417 395.200467 1502.611446 119 96 111
719.503975 374.548697 1473.909473 108 88 107
710.139704 382.623768 1475.125694 103 87 108
1044.732761 272.727180 2241.053391 64 34 25
709.250927 393.677187 1517.972660 128 102 119
709.250927 393.677187 1517.972660 128 102 119
703.370523 386.353922 1471.544933 193 164 158
703.567648 386.067939 1472.017860 193 164 158
1047.420502 273.688865 2249.729729 152 104 100
699.650860 393.688941 1505.549335 197 165 154
701.672077 379.053283 1462.222099 192 160 155
1046.180248 291.870213 2268.294525 70 51 44
1106.403923 278.618741 2383.592606 139 108 96
763.128376 309.834337 1568.580914 169 133 122
719.872713 314.745927 1505.280495 164 127 123
644.926023 378.000855 1492.033863 152 117 127
1203.190422 266.108251 2556.575775 162 126 116
1203.190422 266.108251 2556.575775 162 126 116
1182.587051 276.452708 2529.819870 98 82 81
1233.439445 258.445072 2600.875664 176 143 131
1087.489891 294.414020 2345.389938 84 61 55
631.503534 371.759224 1476.324654 149 114 114
1141.476631 288.714480 2454.697037 117 85 73
1108.669853 294.425082 2392.563248 46 33 34
1230.040455 276.938558 2619.510269 104 81 87
1094.931984 297.159386 2360.791969 181 146 141
1101.363373 297.912145 2372.083664 107 79 91
1086.729240 301.037884 2346.684074 138 112 106
1076.081848 300.324082 2320.155525 39 31 32
1076.081848 300.324082 2320.155525 39 31 32
1067.852974 300.788856 2302.367973 128 105 117
1114.713669 298.774648 2401.176643 110 89 78
606.779194 364.047980 1445.060921 217 181 171
1122.002697 299.358606 2414.958191 133 105 96
1116.639042 301.927876 2401.447868 50 37 37
605.717278 360.704708 1455.217838 222 183 170
1170.652103 299.242735 2507.688141 51 36 37
1358.622837 248.297048 2783.381844 142 106 96
1133.569145 302.220106 2433.348083 80 60 58
1097.297001 304.323173 2361.852264 89 63 62
1100.825405 305.504727 2371.536446 137 114 116
1119.535828 304.265118 2407.816505 115 94 99
1211.472702 297.170925 2581.884003 124 107 109
1106.961155 305.686831 2382.830811 76 53 62
1127.023029 304.457903 2421.952629 69 51 49
1157.927132 303.418827 2482.755089 135 116 128
1157.511711 303.288698 2481.492424 135 116 128
1153.989124 303.769684 2474.911118 81 60 71
1133.503723 305.862141 2436.883545 138 118 121
1202.200222 299.161482 2561.972237 60 42 40
1250.319004 294.274402 2649.584007 76 55 65
1099.534130 307.113743 2367.626762 141 123 119
556.359291 347.317791 1352.362061 166 125 115
1294.629574 290.397811 2723.080254 76 55 65
1294.629574 290.397811 2723.080254 76 55 65
590.160513 354.143453 1452.236366 164 128 128
1045.602512 300.396228 2240.526009 79 57 52
1361.391735 288.353944 2833.272743 87 64 70
1487.881470 268.397355 3037.530327 67 53 51
1214.994240 309.832478 2584.875870 74 65 68
1536.200237 271.233320 3114.024925 69 50 50
1414.448261 293.601823 2923.789787 57 42 49
1414.448261 293.601823 2923.789787 57 42 49
1319.689941 319.860053 2786.322975 145 117 122
1652.548027 253.302503 3267.389297 78 58 51
1514.742088 292.173576 3081.515121 126 101 114
1261.547661 274.800825 2596.260643 131 106 120
527.698231 361.922431 1391.413975 208 174 165
1091.467381 320.005250 2350.127220 66 49 63
1534.107399 297.030759 3123.947525 126 101 118
1085.200214 320.627379 2337.776756 87 71 86
1074.335957 318.357706 2313.721466 161 126 120
1188.429356 332.580113 2543.128395 146 126 120
1261.925220 327.427220 2669.073105 123 97 111
1241.207695 324.968624 2627.515411 89 78 92
1906.267166 321.962452 3857.287979 80 59 67
1204.171276 328.831673 2557.876205 73 60 69
1242.177582 332.994318 2634.768486 102 85 100
1505.832100 313.430309 3064.272881 72 56 62
1226.044941 343.371058 2615.800476 169 157 154
1224.172688 337.470984 2599.827766 128 106 119
1356.111050 331.608772 2813.875389 89 66 76
1165.199566 340.311909 2497.808456 103 84 104
1833.895302 310.099840 3604.347610 130 105 119
1385.364628 348.808646 2887.429810 188 161 157
1274.038506 357.202744 2704.414368 119 96 101
1215.308380 349.680471 2590.054893 154 132 127
1167.430973 347.988844 2505.034065 128 109 118
1417.361546 349.049044 2928.375053 140 114 127
1196.983147 346.898437 2552.128410 155 134 132
1163.817692 349.477482 2499.011612 42 20 21
1175.156975 352.132201 2522.315979 47 27 25
1159.948730 347.097611 2486.065102 58 37 31
1298.654652 347.618365 2714.484596 146 124 127
1298.654652 347.618365 2714.484596 146 124 127
2080.816460 338.809752 4016.201019 127 102 118
1096.786594 339.569402 2365.960693 39 25 26
2104.131126 333.980680 4040.446472 126 105 119
1597.741222 356.611657 3218.614578 137 116 123
1295.005608 355.710053 2712.718391 95 79 81
1301.665306 357.099581 2724.410057 68 46 50
2164.973640 346.426034 4136.666870 36 25 29
1321.340370 359.057689 2758.140945 146 123 127
1056.838989 313.171840 2255.262184 91 61 57
1335.159302 365.239072 2780.129242 148 126 129
1335.159302 365.239072 2780.129242 148 126 129
1327.657509 369.662881 2774.686241 68 46 49
1328.175449 373.144221 2777.937698 47 32 34
1105.534554 340.797400 2369.880104 65 48 36
1409.489059 399.442434 2922.673607 134 112 114
1335.276031 403.185463 2817.265701 65 48 35
408.932877 295.232892 1219.575977 66 43 37
3641.608047 499.344969 6496.601105 37 24 27
3504.753494 504.866314 6293.338394 100 79 82
1376.647758 359.546566 2794.120216 25 19 20
450.294590 294.880533 1294.829750 194 161 151
379.100394 289.329743 1185.171890 108 81 83
1611.569405 420.611668 3229.232788 106 84 86
1582.474709 391.538143 3134.100342 61 48 56
613.269234 295.188832 1557.267380 195 161 153
296.687961 259.846783 1037.510395 45 27 27
6590.538788 877.336597 11245.968628 89 67 76
585.580730 305.229306 1544.383717 169 135 131
516.689730 293.156052 1428.338528 198 163 159
483.291531 289.382219 1375.662231 92 63 48
303.676581 259.257317 1071.640205 172 148 143
163.417113 219.978452 807.366848 87 57 55
497.429085 290.970087 1400.735283 198 164 157
364.600611 270.333505 1177.828503 151 132 134
206.357574 215.131640 862.469387 102 73 69
206.357574 215.131640 862.469387 102 73 69
147.939742 222.322798 791.639900 185 161 154
230.518103 210.713196 892.154217 116 86 78
452.304983 287.379098 1334.889507 129 105 111
1505.715179 561.795378 3252.924347 67 44 32
1273.282814 417.817688 2697.897339 255 192 174
1002.624226 234.343171 2051.389694 248 185 167
484.499836 288.381052 1387.922382 120 86 69
567.384148 295.456648 1522.149658 150 112 114
455.459690 281.035018 1346.337986 75 53 46
465.240002 280.818772 1364.193726 74 54 44
465.240002 280.818772 1364.193726 74 54 44
-1701.248550 7.952409 -2034.512711 104 76 65
524.162197 284.956574 1457.142067 192 160 154
436.274242 268.679142 1312.278366 165 144 143
475.632095 279.742336 1384.161949 62 43 35
1065.352821 323.671961 2257.979012 130 93 83
415.488291 253.605485 1279.358196 85 70 73
1707.957268 572.454977 3469.474030 44 35 36
1687.792015 569.653463 3436.830902 101 80 83
491.520834 276.366615 1416.665363 48 32 27
1076.207352 331.877828 2280.861855 101 73 67
1773.403549 605.652905 3585.612488 97 80 83
1798.567390 569.013834 3561.907196 76 43 30
-1803.179741 -122.728968 -2190.381241 101 76 88
369.777417 240.679002 1219.822788 83 63 58
369.777417 240.679002 1219.822788 83 63 58
503.493404 271.150970 1442.858219 40 25 19
-2630.494499 -310.786009 -3486.436844 97 74 81
-2179.771233 -222.510028 -2759.379196 38 26 29
-2179.771233 -222.510028 -2759.379196 38 26 29
394.314075 246.964097 1268.440819 138 118 115
498.320866 260.489225 1425.735474 130 105 100
77.160174 191.198504 778.104353 86 57 58
77.160174 191.198504 778.104353 86 57 58
353.874016 236.768198 1207.777786 165 135 130
503.934622 268.500447 1447.636127 35 23 19
207.241631 211.497164 982.886410 110 78 71
1071.346188 329.178405 2264.974403 88 63 56
380.742383 241.468978 1251.346016 106 87 82
165.797162 204.185700 921.059704 122 88 79
429.693937 249.910188 1329.462433 174 149 144
385.792494 243.023038 1264.338493 176 156 152
453.929615 249.267650 1367.390537 157 132 126
96.392202 173.966014 811.174679 189 162 154
4986.786652 1949.277115 9376.514435 148 106 83
1070.915794 330.493951 2262.314606 131 95 87
98.078573 181.596124 827.669716 136 110 106
1066.310596 325.618052 2250.316429 76 55 49
551.412010 273.248196 1530.035114 193 155 150
-1843.361855 -240.195775 -2193.556213 92 72 86
558.482409 266.800213 1532.560349 210 173 167
-1695.655632 -199.816155 -1939.429665 40 27 29
545.012999 266.943455 1516.671944 210 173 167
512.918282 263.313794 1472.915077 103 76 66
542.463875 262.166762 1513.045979 202 172 159
500.689125 254.452229 1455.864143 37 25 24
511.658478 256.668258 1475.649071 96 71 64
305.096292 201.034188 1151.416683 202 174 168
577.044344 261.268449 1566.882229 167 127 127
-3662.616348 -1207.866764 -5489.540100 127 100 97
538.866329 254.393339 1513.007641 195 162 156
446.408558 223.278260 1362.969398 73 52 51
500.260162 250.769162 1464.505482 98 71 63
-703.145313 -4.176578 -319.383788 103 72 63
12.198804 121.540380 715.954018 179 155 148
350.394678 190.061200 1212.209702 117 87 77
-140.364218 81.504452 487.555218 113 90 82
-68.494552 99.955684 598.558187 181 152 143
146.980143 136.701810 909.497833 151 126 119
593.626785 261.397362 1601.214790 209 174 167
101.810050 134.172380 854.251957 101 74 70
2498.320389 1020.324898 4805.729675 40 26 28
410.237074 211.436272 1327.126789 32 23 20
-2059.718132 -383.222318 -2316.307449 39 27 32
23.537494 93.091154 725.350237 155 131 118
1200.228024 444.390154 2542.009735 51 35 24
1102.819824 263.814497 2191.515541 172 144 135
1102.819824 263.814497 2191.515541 172 144 135
386.720014 201.953077 1294.258118 95 68 65
165.087736 131.416810 950.259590 103 71 70
1174.843502 418.010521 2476.757050 51 35 24
363.527131 183.044338 1247.738552 46 30 28
391.924143 201.909804 1304.247284 135 115 108
481.745100 226.896429 1441.669083 168 137 131
481.359959 226.918101 1441.351032 168 137 131
366.436434 138.711584 1203.009319 64 44 45
-3465.705109 -785.866880 -4290.092468 98 76 82
-3325.945663 -735.049200 -4035.089111 36 24 28
615.553474 258.642125 1647.236252 121 96 83
404.230452 190.055120 1335.995579 88 62 54
2431.024742 627.448702 4094.829559 105 81 88
5122.608566 1987.421989 8651.023102 114 87 90
5122.608566 1987.421989 8651.023102 114 87 90
1290.174103 483.104849 2648.522186 73 53 57
1257.535744 470.834446 2596.897125 58 41 49
627.532673 238.184500 1666.277885 203 168 162
666.095352 249.816966 1720.415688 223 186 172
7248.385620 2041.323090 10633.688354 101 78 87
494.811440 185.889113 1468.266678 196 163 154
636.013317 244.953084 1684.619713 123 101 87
1231.427097 458.429050 2546.974564 138 110 103
1670.039940 626.220942 3186.741257 23 20 22
1087.084389 347.656131 2267.911720 86 60 53
645.471525 240.241623 1700.236130 112 92 79
1594.245720 591.660738 3048.880959 108 83 86
3624.607849 1141.545010 5681.538010 48 35 38
1519.743729 574.612188 2948.198128 143 115 105
3365.579987 990.237904 5222.328186 118 101 105
3272.513199 1009.947777 5152.748871 109 85 94
3042.712975 963.144016 4861.058807 91 68 73
1337.887669 338.654160 2487.313080 100 72 62
1224.837399 452.962208 2513.086510 129 103 97
1555.594444 651.189566 3049.177742 68 46 49
518.409109 156.774688 1496.777534 170 135 131
1211.606503 445.411634 2485.664558 31 23 31
1331.357193 493.903971 2653.875923 71 52 57
1692.354774 496.335506 3003.816605 91 68 73
1196.481037 392.615199 2408.782196 71 52 57
1196.481037 392.615199 2408.782196 71 52 57
2368.900108 810.812378 3991.370773 127 105 104
2487.430000 803.063679 4082.670975 38 24 28
2487.430000 803.063679 4082.670975 38 24 28
1469.757843 544.596672 2829.478073 152 120 107
669.520473 230.335736 1736.797905 121 94 80
2001.555061 703.316832 3493.418121 134 110 109
2221.715736 736.513281 3727.408981 38 25 28
1229.065418 451.026917 2496.168137 141 113 102
1487.510681 554.302835 2846.076393 28 17 19
2256.413841 714.074564 3726.073456 127 98 97
1873.472786 666.647100 3321.393967 106 82 91
1213.821411 443.815374 2473.089409 125 98 92
1507.583904 551.541901 2859.288406 43 30 32
677.247953 228.204513 1747.481155 126 98 86
1213.753414 336.752939 2348.038673 36 23 25
2023.554802 685.666943 3466.598129 38 26 28
796.354914 185.816884 1807.814789 152 117 111
1235.052490 453.303528 2498.109436 47 31 29
680.700445 227.066588 1752.448845 121 97 82
1232.750130 451.177740 2493.534279 47 31 29
1504.222202 545.865107 2839.318085 110 87 91
1673.218918 475.106192 2906.044579 183 148 137
1882.839775 650.370026 3284.680176 36 23 25
1800.584221 623.736191 3179.198456 109 85 93
1549.036694 503.700829 2822.431564 36 23 25
1765.204430 618.498182 3134.325409 37 25 27
1633.176422 481.308317 2864.769363 83 61 51
1699.522591 594.959068 3047.841454 107 85 99
1671.630859 591.686630 3016.602898 36 26 32
1594.359016 569.020224 2921.120071 38 29 34
694.064093 223.045468 1771.026039 112 101 87
1642.979431 582.382154 2976.872253 107 85 97
1175.102520 420.337915 2398.301888 47 37 46
687.093353 215.093470 1758.987999 206 171 160
1272.998524 460.006809 2522.404289 42 31 34
1276.436329 461.147499 2524.221992 111 92 103
1101.602554 307.354188 2209.675598 38 28 30
702.423811 221.237183 1781.814194 106 87 71
1160.932446 412.512589 2372.838402 66 52 50
1113.144875 374.990535 2292.356873 101 73 67
1159.676838 408.796930 2365.944099 125 104 107
1248.023033 453.565693 2485.772705 123 100 99
1246.515846 452.134752 2482.892227 123 100 99
726.537228 224.137402 1810.059166 175 143 132
1308.518600 477.095556 2557.726479 99 82 98
1737.917900 583.003616 3021.458626 86 63 52
1681.030273 601.360893 2988.871765 88 69 65
1658.655357 545.781279 2909.937668 189 158 143
1645.763016 557.999039 2911.157799 90 67 57
1406.316757 511.170292 2666.163826 197 165 150
1290.338612 469.878674 2528.742409 41 32 34
1628.332901 557.812691 2887.540627 163 134 116
1583.895397 516.334772 2807.159805 189 157 144
1133.498383 397.015142 2323.782349 155 117 109
1556.533813 542.681265 2810.947800 78 58 51
1592.083836 549.613905 2845.166969 170 137 124
1334.687138 485.748339 2574.639893 99 76 80
1372.809696 498.893023 2618.451500 198 164 150
1232.413006 447.688484 2453.384399 255 226 214
723.333740 216.153646 1809.589386 122 98 78
1270.874786 463.500404 2497.994041 192 159 146
1107.016277 370.783305 2271.213722 102 74 67
716.694927 186.845195 1785.890770 173 134 123
757.815981 216.774511 1848.717308 118 84 66
762.158680 217.285681 1855.087090 188 153 140
728.450632 190.744221 1804.851913 182 148 141
1187.525368 438.957357 2388.138771 154 125 121
771.011257 215.358138 1864.374542 110 81 65
768.662453 207.374763 1857.737350 205 171 158
777.179432 215.412569 1871.839142 162 133 126
767.390156 204.811001 1856.420517 211 176 167
1177.466965 426.031017 2361.447906 173 142 144
781.515932 214.579821 1876.798439 104 75 60
1175.283146 427.964258 2358.491325 125 95 80
789.587212 215.901136 1886.603737 173 140 126
764.204407 193.511248 1847.368240 129 103 117
789.095688 213.915753 1885.423088 107 75 60
1005.395222 243.179893 2062.294197 163 132 127
1005.395222 243.179893 2062.294197 163 132 127
779.004478 209.859395 1874.962044 114 90 71
1198.519135 450.737333 2392.178345 184 150 142
768.011093 191.261971 1850.280380 130 104 118
773.910713 196.115100 1860.017014 191 160 148
1068.805981 272.794223 2133.748627 142 112 106
768.070221 184.917021 1845.448494 205 171 159
768.070221 184.917021 1845.448494 205 171 159
1196.311378 450.173998 2387.692451 98 76 73
1164.398003 433.401775 2350.011635 122 99 90
773.013783 187.199605 1852.024460 218 180 166
1046.238136 262.034035 2107.745743 157 129 120
802.653503 212.601590 1900.494766 73 47 40
1149.147415 317.458582 2226.537704 142 108 113
799.779177 175.628293 1865.970993 113 87 96
799.779177 175.628293 1865.970993 113 87 96
1224.338913 462.741709 2408.541298 117 94 108
804.565239 198.537660 1891.978073 139 114 124
801.947117 197.880340 1889.816093 139 114 124
802.363110 204.663610 1896.252632 57 39 50
810.779572 203.326344 1903.111839 66 43 49
1178.099155 443.891716 2354.935837 55 37 29
1303.682137 474.308634 2460.890007 109 79 86
809.210396 208.556390 1907.930565 116 95 97
810.922050 206.161356 1907.055283 110 85 101
1304.016113 449.649572 2438.258743 67 51 48
812.337875 179.288435 1883.817673 118 100 93
809.270954 180.587375 1883.717155 50 31 27
814.367294 205.535054 1909.722900 66 47 54
1287.663174 477.211571 2451.102448 115 90 104
818.157196 203.596067 1911.017418 61 38 45
817.692471 205.140638 1912.524605 55 37 43
1309.653950 465.537977 2452.620697 75 55 50
1264.076042 475.132084 2431.714249 191 159 148
818.111801 184.067762 1895.237541 77 47 37
1153.038883 326.536679 2229.848099 194 162 151
1295.900726 446.291351 2425.687790 22 17 19
813.173199 178.755772 1887.517548 110 88 97
813.173199 178.755772 1887.517548 110 88 97
822.472572 204.581404 1916.366005 54 37 48
1171.036911 339.984202 2251.598167 163 127 116
1206.552410 364.993834 2295.644760 54 40 32
824.926567 203.809595 1918.299675 62 39 45
824.320698 205.349207 1919.573212 52 35 40
833.999157 180.821729 1903.719521 170 139 128
1195.339775 454.663181 2366.660118 99 91 91
1231.021786 466.108084 2398.088646 104 85 104
1277.378750 434.031248 2398.213577 22 18 18
1216.598320 463.943338 2386.370659 92 49 40
1216.598320 463.943338 2386.370659 92 49 40
840.461349 188.232934 1916.697502 95 76 84
840.461349 188.232934 1916.697502 95 76 84
828.711796 205.100346 1923.870659 93 80 85
963.764286 230.902910 2033.664322 25 18 21
1271.015263 433.162928 2390.118408 140 115 107
1063.276863 273.735428 2125.611115 192 159 145
839.277840 183.668721 1912.988663 96 77 73
1236.337280 397.138667 2335.661697 87 68 84
1271.011925 465.024424 2414.122391 128 107 103
834.833431 205.338216 1930.339813 89 76 85
1270.842552 458.470917 2408.162689 109 86 81
1259.461308 426.619625 2373.810196 113 91 94
838.937378 204.635882 1932.974625 62 37 45
842.653656 184.918177 1917.735100 76 67 67
842.653656 184.918177 1917.735100 76 67 67
838.929558 197.267926 1926.806259 119 96 103
904.981041 219.957113 1988.104057 91 76 84
945.359230 229.174495 2021.423340 88 74 84
1029.346848 254.762650 2088.473320 201 165 155
1128.286457 315.013885 2198.600578 137 111 117
838.645172 207.124567 1935.580826 92 72 87
1236.495018 403.487635 2337.707138 111 94 99
841.628361 192.162061 1925.209618 58 34 41
848.818302 188.900888 1926.948929 107 86 97
914.473152 227.290893 2000.901794 251 205 169
1249.144554 419.028378 2357.265663 132 106 101
842.320728 205.954146 1937.804222 88 75 87
849.429512 190.272534 1928.850937 121 97 110
842.598343 206.703424 1938.942719 54 39 43
1235.382366 407.030296 2338.075638 33 26 27
1195.014477 367.009425 2280.509758 18 12 11
1166.102600 446.660519 2330.757904 105 88 83
852.069855 190.068924 1931.055260 142 120 123
845.586586 206.503654 1941.284370 40 27 32
927.938938 228.687882 2011.222649 125 94 72
1031.962872 256.311011 2091.116714 86 69 62
1113.391304 332.427716 2199.435234 61 38 24
1173.947144 450.240946 2336.479378 61 42 40
848.280334 206.326342 1943.893433 93 80 86
927.688885 228.970981 2011.714172 255 234 215
1123.024940 343.058681 2212.851143 83 43 35
852.101421 205.785084 1946.242142 58 35 42
1234.874439 402.048588 2329.856682 27 22 21
1118.671989 339.243388 2206.135941 91 41 39
1161.058331 389.726281 2269.880676 125 129 127
1161.058331 389.726281 2269.880676 125 129 127
855.778408 207.736731 1951.928329 54 38 44
1184.761047 423.116875 2309.615517 74 41 27
1126.798058 348.706436 2217.402267 73 30 34
858.057976 206.555557 1952.799606 91 76 84
886.215019 197.694933 1962.067604 91 81 80
932.391453 229.042888 2015.988159 255 240 228
1044.011307 263.749766 2103.539276 124 99 107
872.145367 199.717939 1956.563568 99 77 81
870.978832 191.884899 1948.933983 34 24 26
969.075871 222.765565 2028.529549 146 111 100
969.075871 222.765565 2028.529549 146 111 100
877.132607 196.688700 1957.308960 114 92 93
871.965408 201.515269 1958.547401 32 23 24
866.349602 206.809711 1959.799576 140 112 114
1195.841885 448.788977 2332.022476 102 82 65
918.767834 226.247454 2006.489182 230 165 153
918.767834 226.247454 2006.489182 230 165 153
873.849010 192.506564 1951.952744 91 81 80
878.484917 200.714874 1962.086678 72 54 64
867.088604 202.717614 1957.449532 137 118 109
878.341293 193.792892 1956.702805 32 22 20
880.412865 194.079792 1958.133888 64 44 47
870.343113 205.578852 1962.491035 137 112 117
870.343113 205.578852 1962.491035 137 112 117
875.434685 201.289320 1962.051582 119 95 99
870.600700 207.996273 1964.981651 85 73 80
866.112041 210.740209 1964.573669 95 77 82
993.732929 235.056019 2052.693558 25 18 20
996.063232 236.353421 2054.999542 25 18 20
946.579552 224.634099 2022.615814 97 79 92
1006.678200 242.012477 2065.375710 113 91 95
879.787922 199.977696 1964.570999 51 28 31
1001.931953 239.392400 2060.764122 35 26 28
941.017723 210.395741 2005.130005 62 42 50
902.269268 197.737944 1974.474907 79 61 58
940.406132 229.694104 2023.685265 228 169 158
951.962090 214.579177 2014.944839 93 76 85
920.227146 225.162816 2008.796883 255 237 228
965.895748 220.790410 2027.346230 90 75 89
944.686699 211.429644 2009.031868 47 31 38
1198.071384 474.282265 2348.692131 137 109 103
891.410637 197.392273 1970.312691 31 20 20
915.379810 223.841548 2005.549431 255 237 228
992.165470 234.022522 2051.827812 97 78 94
909.008598 222.460437 2001.260376 233 170 154
894.189930 198.156261 1973.116112 85 73 68
910.012054 222.378612 2001.954269 255 237 228
936.852646 208.534718 2003.802109 91 71 84
906.770420 199.880707 1981.669044 83 69 66
885.502720 211.155653 1980.023384 48 33 38
987.127495 231.113029 2047.367096 100 82 95
1172.061634 426.110315 2289.256477 35 28 29
918.297768 202.612615 1990.615654 124 101 100
913.177109 201.423335 1987.092972 35 27 24
906.834316 209.967136 1987.324905 99 77 81
928.496647 205.548501 1998.321152 114 92 93
912.041664 201.556587 1986.977959 85 68 68
947.361851 212.477684 2013.235283 72 58 61
907.990265 205.383492 1988.876343 117 93 97
893.541622 210.186720 1985.171509 143 116 120
900.927258 218.995547 1996.028137 254 235 229
988.674164 231.858730 2049.247360 101 81 94
893.400574 212.657094 1987.606430 98 79 92
909.669399 202.347612 1987.589645 38 27 26
907.371330 207.133961 1990.742302 59 39 44
901.806259 219.252515 1997.308350 255 233 223
943.822861 211.280894 2011.650467 111 87 98
902.930737 219.547892 1998.454666 154 76 76
956.184578 215.997863 2021.442604 38 24 29
956.184578 215.997863 2021.442604 38 24 29
898.968983 212.124729 1990.726089 55 35 38
900.984669 207.864141 1988.520622 100 85 91
898.794460 210.269165 1989.425278 135 111 115
898.794460 210.269165 1989.425278 135 111 115
898.514652 212.144446 1990.787315 82 68 79
898.514652 212.144446 1990.787315 82 68 79
904.968452 207.516932 1990.609169 127 103 107
905.128574 208.304930 1991.320419 98 81 94
958.765888 217.027998 2023.794365 41 29 31
902.969933 208.382487 1990.475464 92 68 81
906.967640 219.304156 2001.067734 255 243 231
912.620449 203.817391 1991.546059 77 70 65
905.772877 219.901061 2000.975990 228 169 158
906.912708 219.866610 2001.748085 255 242 236
915.068531 204.286146 1993.462944 82 70 70
915.068531 204.286146 1993.462944 82 70 70
905.552769 209.382367 1993.078613 97 79 92
1061.882401 284.394217 2124.418068 42 31 33
913.028717 205.841470 1994.114113 60 38 43
932.774734 207.064724 2004.308319 25 19 18
908.228588 220.201039 2003.045464 240 183 169
906.112671 209.884572 1994.088173 94 77 89
909.019470 219.405031 2002.948952 253 243 239
916.484737 206.567669 1996.647835 118 97 97
1080.091858 302.311707 2146.042824 42 32 37
1042.970181 267.580271 2102.831078 102 88 90
1039.799500 264.908576 2099.308395 84 71 75
905.748558 213.875675 1997.683907 84 71 82
908.419132 213.781929 1999.212074 53 31 39
952.533531 214.650726 2020.544052 51 38 38
920.370388 206.306005 1999.149895 25 15 16
908.681965 214.025235 1999.730301 85 73 83
918.854809 207.156968 1999.361229 41 21 25
914.805126 213.308883 2002.299881 24 18 19
1123.963070 354.381394 2203.536224 49 37 38
910.883999 214.747357 2001.652908 46 31 36
1002.804470 239.133883 2062.790680 100 83 94
985.417938 229.795766 2047.688484 40 30 33
910.591125 214.779401 2001.874352 87 74 80
1086.095238 309.342861 2152.590370 137 119 118
997.581673 236.145377 2058.228683 25 19 21
914.480019 214.571071 2003.877068 132 106 114
913.335133 214.754415 2003.467751 59 36 41
1052.640724 276.206231 2112.952995 47 32 37
1126.225948 358.232951 2206.078339 133 114 110
1126.225948 358.232951 2206.078339 133 114 110
952.167320 214.676452 2021.352768 175 148 133
1001.447105 238.319278 2061.713028 109 89 89
1076.856232 299.767447 2140.987778 154 133 123
1076.856232 299.767447 2140.987778 154 133 123
1092.307949 316.438198 2159.673882 156 134 125
1094.591522 319.472599 2162.802124 97 77 86
1125.720119 358.855343 2205.154800 97 74 80
917.832470 215.850806 2007.621765 79 64 72
917.832470 215.850806 2007.621765 79 64 72
651.835060 -96.109188 1663.516998 154 133 123
974.282932 223.994541 2039.114761 175 149 141
1174.077511 456.847906 2300.400734 158 137 121
930.508423 209.729862 2008.782959 27 16 17
919.884014 216.359472 2009.424210 38 26 31
1096.544743 322.203255 2164.498138 170 141 134
1105.725193 333.152580 2176.283073 171 144 134
920.314217 217.134619 2010.467720 54 31 38
920.314217 217.134619 2010.467720 54 31 38
923.268890 216.028309 2011.271477 53 38 41
935.385036 211.445689 2013.286972 28 16 18
924.851513 215.051150 2011.579704 55 38 38
925.970936 214.558506 2011.792564 49 34 33
923.318958 216.842914 2012.323380 115 95 104
1178.344154 452.717829 2293.482399 147 123 101
941.191101 213.406157 2018.211365 66 51 55
939.954662 213.118148 2017.479515 28 17 21
1064.356804 287.799859 2124.746323 109 91 88
1081.783199 306.237388 2145.126343 58 35 34
929.299831 214.925265 2014.335823 113 95 97
928.646183 216.082120 2015.052795 117 94 97
940.231895 214.075923 2018.676376 40 30 28
948.732471 215.348196 2023.324966 186 155 143
1020.869541 250.086713 2079.407120 112 94 100
1079.362392 303.647017 2141.795921 86 59 49
1086.333942 311.473060 2149.893188 64 37 34
944.626141 214.837790 2021.682358 25 18 18
1084.877300 309.812713 2147.806740 194 159 128
1087.861729 313.335395 2151.429939 201 164 132
1088.280678 313.763976 2151.896858 201 164 132
1044.275951 268.583775 2106.027412 198 164 150
955.253410 217.786026 2029.106331 116 90 104
948.914528 216.471219 2025.512123 28 20 20
958.003712 218.638587 2030.960655 184 149 144
963.813305 220.520854 2034.909821 191 160 154
1170.839500 442.447186 2274.861145 133 104 83
953.588104 218.060637 2029.254341 108 86 90
953.588104 218.060637 2029.254341 108 86 90
953.279400 218.157673 2029.334450 32 20 22
982.069492 227.995181 2048.133087 185 154 150
982.069492 227.995181 2048.133087 185 154 150
940.646362 218.744254 2024.752235 58 31 32
1017.639637 273.702383 2045.681190 89 75 91
1017.834759 273.373532 2045.389557 40 27 28
1017.724514 272.884607 2045.542908 66 51 54
1017.080402 273.402929 2045.579338 48 37 49
974.477577 305.738425 1904.116631 106 89 107
968.891525 307.594323 1875.100136 115 97 110
972.012806 305.506682 1894.981575 48 36 40
972.012806 305.506682 1894.981575 48 36 40
977.126217 302.766085 1938.920784 140 114 110
978.703785 301.693654 1956.485558 60 34 27
965.217972 307.355452 1866.157722 117 100 116
978.143406 302.313042 1958.140755 93 82 90
978.165054 302.289844 1958.509827 85 69 78
969.490528 305.767202 1903.285789 20 20 20
955.274677 311.209869 1809.407806 89 74 88
1015.142536 261.547542 1903.249931 93 90 84
1015.142536 261.547542 1903.249931 93 90 84
1012.234879 263.675737 1904.662132 199 129 111
958.476830 308.661819 1843.448448 63 47 48
975.966740 302.111578 1955.218506 56 35 41
974.963093 301.008463 1940.450478 133 114 123
974.415016 301.367259 1939.087296 133 114 123
974.576569 302.827930 1954.337120 57 41 45
963.574982 305.704761 1894.661331 148 130 129
962.446594 305.337954 1896.208763 110 91 104
961.966705 305.047536 1907.561111 74 65 74
961.101532 305.105925 1906.159401 74 68 71
911.740494 314.997768 1657.302094 113 90 102
964.813137 302.438021 1942.173958 89 75 91
964.813137 302.438021 1942.173958 89 75 91
919.627476 310.321975 1713.200951 67 64 65
963.850021 302.289319 1937.630463 40 27 28
965.020370 302.461243 1945.545578 140 122 129
964.296627 302.215195 1941.021347 90 77 90
952.553844 304.711390 1894.237518 24 18 17
961.794186 302.429771 1937.268257 109 92 109
1047.209549 266.140914 2190.971565 61 89 85
962.230492 301.769233 1939.809418 112 97 110
829.178524 322.638130 1329.031944 131 112 125
1044.918156 269.316959 2194.902611 124 106 89
959.348392 299.685645 1918.230057 45 32 23
891.433525 314.445162 1632.459068 88 71 65
949.255276 304.204988 1888.378906 75 66 77
948.521614 304.515791 1888.671303 23 17 18
770.878267 324.261475 1056.874752 123 97 95
1058.431530 262.284565 2218.616867 107 88 93
757.115221 319.819808 976.332378 124 107 112
1067.709541 261.412406 2259.061050 123 104 107
878.009224 314.964962 1595.484066 170 137 131
711.083555 320.698595 825.879002 93 74 78
1509.821892 177.034831 3880.489731 97 82 86
652.131033 331.229782 658.681488 117 98 93
941.128349 301.759672 1880.663300 43 32 33
935.993481 302.801132 1867.112160 162 132 127
938.161945 302.827764 1877.496529 88 84 85
1793.414688 183.264029 4967.586136 13 13 13
928.038502 305.057716 1849.044991 170 138 128
1129.934311 270.399475 2536.848831 166 136 131
1062.071419 278.553534 2285.788918 107 112 99
1163.805294 273.684072 2684.476280 105 87 98
946.940613 302.351022 1926.347923 145 120 131
1722.280312 215.879917 4657.645035 21 18 18
1077.851486 284.843826 2344.937897 62 32 20
1082.172489 286.131644 2359.210587 160 107 98
933.875847 300.896740 1898.113060 193 162 158
1068.745136 289.532614 2304.483604 114 91 82
1077.415848 293.001676 2332.419586 175 144 131
1076.579666 293.460965 2326.560783 77 54 47
1058.596516 286.399460 2247.903061 61 49 45
1187.477875 295.010924 2612.723923 137 105 93
929.798126 280.892324 1888.052559 161 121 117
1434.887314 279.667568 3114.191437 158 124 112
1216.404057 299.278235 2636.513519 161 125 111
1199.882793 299.301672 2590.941429 117 85 73
1116.194057 300.696087 2395.700645 105 78 73
1082.938766 301.417255 2318.785095 166 132 123
1082.766342 301.236963 2317.758179 166 132 123
1082.299042 298.109055 2306.841278 171 136 124
1157.799149 296.747804 2478.916550 83 62 57
1083.784676 298.570037 2308.860207 71 42 34
1271.454716 284.232044 2704.318047 108 86 94
980.020618 268.582225 1983.049965 162 127 120
1438.552570 267.693377 3028.900909 77 52 44
1133.428669 299.960542 2416.987038 113 89 81
1142.164707 300.524807 2437.399864 135 110 101
885.091114 299.529099 1861.354065 157 124 125
1151.172352 304.181933 2455.730629 57 43 37
1108.092880 305.057406 2363.806152 127 106 109
1137.372494 304.641414 2423.692894 107 86 89
1126.355076 305.444098 2401.404190 124 104 120
1152.202320 306.483889 2455.027580 134 113 115
1302.898026 296.709824 2740.024376 133 117 132
1291.206264 295.219469 2711.309052 133 117 132
1354.476643 295.788431 2836.776924 140 123 135
1380.559731 291.762853 2871.704483 95 69 70
1362.187576 296.218801 2841.984558 101 79 89
1541.531658 252.170873 3089.545822 174 146 134
1403.758240 295.372438 2911.711311 60 43 53
875.327015 287.782860 1835.426331 165 128 118
1386.002731 293.714571 2871.589851 60 43 53
870.936775 290.375018 1833.457756 168 131 119
1422.493172 290.770149 2927.567291 126 104 116
843.604755 300.590181 1812.361717 156 121 118
1257.294178 316.737938 2655.432892 27 20 26
1112.958336 320.017624 2381.591988 169 151 154
1083.342457 313.719249 2308.564758 163 135 130
1056.660175 290.076208 2200.982666 70 50 45
1493.269157 283.695197 3000.912476 81 57 66
1473.567772 294.940710 2984.129524 48 36 41
1473.567772 294.940710 2984.129524 48 36 41
1420.061111 385.189891 3084.348488 53 39 55
1547.279453 254.761887 3022.103500 193 162 151
1132.084370 336.258268 2437.808037 165 151 152
1420.930672 384.475613 3074.052238 111 94 106
1420.930672 384.475613 3074.052238 111 94 106
1459.014893 421.475554 3211.421204 193 179 177
1459.014893 421.475554 3211.421204 193 179 177
1483.544922 270.211101 2920.761681 63 47 47
1521.220398 296.591234 3045.432091 41 29 35
1507.449341 288.808584 2998.148727 133 115 127
1494.732189 292.610312 2981.332970 134 110 131
1053.874397 288.254857 2186.778069 82 59 56
1939.724731 599.118805 4412.521744 53 34 44
1057.509708 291.375399 2198.801804 95 61 52
1057.930183 291.205239 2199.124718 93 61 54
3948.048401 1104.816055 8972.286987 80 63 74
1616.519356 260.503936 3105.189705 185 150 138
1518.133736 294.316912 2994.050789 130 104 120
1434.645367 475.306606 3220.146942 108 87 103
1613.569069 287.836766 3133.938217 130 104 115
1564.124107 297.172236 3065.452194 35 25 27
1564.124107 297.172236 3065.452194 35 25 27
1055.396748 289.339471 2185.363197 141 108 94
1312.847900 501.789093 3038.172531 112 101 116
208.373070 -146.513355 -79.198724 162 140 138
1390.641785 573.789597 3300.103760 35 23 25
-89.442039 -154.953492 -565.314770 125 106 114
447.791386 -19.842932 580.320978 63 41 39
3609.502411 707.050610 7119.148254 142 125 129
3609.502411 707.050610 7119.148254 142 125 129
686.145782 136.570656 1286.763096 63 45 52
685.453463 160.802865 1333.996391 72 54 66
656.803656 123.634589 1214.986706 53 42 50
1160.207462 270.564628 2306.183243 137 117 121
2317.636108 261.133361 4014.260483 88 59 54
1783.471870 317.247558 3296.921158 162 136 133
1658.940697 247.051954 2969.628716 133 114 128
3492.683029 313.448811 5761.556244 137 116 125
1412.115097 249.634981 2614.375496 144 122 136
1236.356640 253.638768 2366.374588 140 120 130
2094.673920 273.241568 3647.506332 94 69 74
1834.386063 334.277821 3381.789780 116 97 115
2154.931641 313.387752 3804.001617 153 136 149
1542.167187 257.702327 2811.447906 131 112 124
755.026054 269.158053 1700.616646 114 93 83
1777.986336 335.435200 3296.136475 32 21 23
1810.548592 344.650197 3356.728363 87 67 78
1777.206421 335.916519 3278.455353 74 51 58
1739.303207 342.636609 3232.699585 41 32 34
473.836088 289.222217 1353.585720 86 58 42
2200.653458 319.556379 3829.220581 163 141 138
4301.549149 419.331694 6952.758026 173 152 151
2283.045769 337.112617 3975.186920 176 156 151
830.566978 263.254404 1806.030846 142 125 128
1065.214062 300.719070 2205.719948 138 105 98
92.803717 270.905638 795.267630 158 137 137
2861.197281 348.994207 4790.811539 112 85 81
1839.998436 348.084140 3364.231110 113 93 108
710.981989 121.786404 1399.756432 38 26 28
566.427755 267.768812 1453.798866 44 28 28
521.352482 264.142084 1386.310577 115 93 90
1173.172665 274.635243 2307.020950 32 21 23
900.866508 259.881282 1902.400208 113 85 77
859.391308 259.049296 1844.871330 171 143 136
713.349438 119.897544 1412.307739 40 26 28
2852.060699 367.399669 4741.708374 126 98 91
1877.501106 371.530771 3421.481323 36 29 31
575.296783 282.693505 1508.060074 116 86 83
206.512690 242.669296 942.704391 117 96 91
1823.591232 358.675051 3320.725632 109 84 100
1094.792652 294.314146 2223.327065 66 31 17
4649.681091 544.179773 7303.976440 182 158 153
3650.395584 720.166969 6274.705505 116 91 102
2573.070908 408.028746 4334.097672 174 147 138
2573.070908 408.028746 4334.097672 174 147 138
479.470825 279.137897 1415.280724 106 79 67
3473.488235 489.468765 5532.183838 117 87 83
3473.488235 489.468765 5532.183838 117 87 83
777.918100 155.543959 1600.004387 127 85 67
884.581470 189.273906 1788.690948 62 43 47
-2241.433334 54.440868 -2311.653900 123 92 84
159.066844 224.346423 950.826836 57 42 42
730.406904 116.641450 1489.071655 62 43 47
730.406904 116.641450 1489.071655 62 43 47
424.550438 230.605435 1298.166752 174 158 154
363.940740 238.000560 1239.056110 174 155 150
328.781652 233.296704 1190.569592 176 157 154
241.907740 216.511416 1061.750889 128 101 93
407.684374 230.110025 1290.949440 170 152 150
407.684374 230.110025 1290.949440 170 152 150
311.388946 218.277550 1159.326839 138 111 107
286.946344 208.342075 1128.881931 158 129 124
372.453380 207.318711 1237.276459 208 181 176
539.052439 251.448989 1502.996349 44 30 25
3477.808762 629.197598 5471.226501 106 77 67
5858.168411 967.671585 8710.651398 116 88 78
1060.496044 296.781182 2175.673485 91 68 62
554.035854 244.843268 1520.759964 40 27 23
2408.358955 524.717283 4042.383194 118 98 108
1060.961819 297.575831 2175.749779 85 63 56
2546.749496 533.344126 4189.208221 30 23 22
3304.217529 630.661201 5170.610046 94 62 55
481.600094 208.703327 1401.846409 143 117 110
2133.325005 422.076988 3532.261276 160 134 126
668.279457 241.360474 1657.841301 95 71 65
513.655663 209.344268 1444.747543 149 124 117
717.506599 212.954903 1673.227882 155 128 119
573.717928 218.786263 1529.735565 24 18 19
2055.635643 463.667536 3487.780380 35 27 31
2607.306480 571.144819 4226.720810 138 120 107
1065.029430 302.618933 2183.093071 126 93 79
1061.501312 298.844934 2173.961449 41 53 31
1263.313007 526.403427 2707.044792 49 34 36
2624.718094 643.503141 4308.838654 102 85 98
1175.994968 291.864610 2283.806801 109 91 103
196.530783 -26.725057 810.846615 82 62 68
581.536198 79.898816 1364.108086 122 94 93
2444.172287 545.659828 3958.657837 128 109 119
3550.336838 936.759281 5615.964127 34 29 31
633.915997 205.376792 1603.624344 190 161 148
893.531418 220.023274 1890.142250 98 77 86
2375.347710 569.088411 3871.086884 34 26 23
5217.323303 1324.111938 7776.696777 114 88 94
2029.668427 482.571030 3391.005707 98 76 67
829.327774 253.454041 1873.894691 105 72 77
3809.754562 1075.862885 5950.143051 36 30 32
1267.126846 405.579138 2503.166962 33 23 23
1039.855766 262.052155 2093.640900 57 41 50
2691.060066 762.394285 4314.390182 126 103 107
1025.477505 250.156331 2064.942551 57 41 50
880.531883 254.626179 1935.532761 159 121 110
740.960312 197.202373 1727.380943 186 158 154
1597.085953 623.136473 3081.569672 141 114 103
2552.081108 743.366051 4121.901321 118 98 103
1202.001953 429.638290 2455.874443 38 30 39
3756.856155 1257.122421 5820.804977 105 84 93
748.706293 174.992824 1719.922256 99 72 61
1123.014545 291.608548 2207.090378 88 67 72
1066.389370 305.145216 2174.561691 90 67 59
1482.182217 551.770306 2849.242592 147 118 111
1182.069206 400.753212 2393.441391 138 110 100
907.621288 251.366329 1965.495300 123 92 74
5096.724319 2252.259636 8069.799042 103 80 85
789.920235 174.501264 1772.127342 79 58 49
5618.672562 2337.256050 8534.949493 118 93 106
3187.839890 1107.392406 4936.928940 57 43 37
2411.473846 786.023140 3884.115982 107 86 85
3638.788605 1557.267570 5823.566437 36 25 28
1068.116951 308.471584 2175.098419 53 75 48
924.225330 249.259472 1983.586311 113 89 72
928.504181 250.321007 1988.623619 114 83 67
931.687546 250.077105 1992.020416 114 81 65
779.663706 179.307914 1786.339760 146 114 111
1069.422245 309.477568 2175.749397 88 67 61
544.198179 55.236542 1451.419830 92 69 58
935.847282 249.913740 1996.402740 109 76 60
1114.592075 358.589149 2268.017006 77 56 59
1222.313786 410.815620 2415.044975 33 24 25
1116.589737 359.576607 2270.628548 77 52 51
422.656298 -5.912947 1294.004822 181 149 137
941.277409 249.603772 2002.377510 112 80 63
1177.539825 391.103983 2351.406860 74 39 37
1170.055962 388.464904 2341.000557 82 47 37
1116.348171 362.252021 2268.939781 67 45 51
1200.448990 407.503748 2384.303856 192 165 161
1231.759262 424.550247 2427.720642 194 164 155
1176.796341 392.467809 2348.883629 255 232 226
1160.319042 384.240746 2326.431084 114 97 101
1111.817169 361.396623 2263.183403 109 78 76
-669.898796 -625.027084 -229.051518 87 64 57
1172.644424 391.613269 2342.615128 84 45 36
1191.117382 403.195143 2368.858910 115 92 96
950.055790 249.268198 2011.799622 112 80 66
946.952343 248.318887 2008.386421 113 91 74
1920.427132 799.739647 3353.004837 42 34 32
1920.427132 799.739647 3353.004837 42 34 32
1150.337219 376.755810 2304.696846 202 174 164
952.823639 249.029469 2014.878464 109 79 65
1060.744572 273.790884 2120.853043 204 173 159
957.365131 249.571323 2019.668770 183 150 140
1099.390888 297.850370 2175.049400 130 98 89
1092.011452 336.984801 2214.535522 57 42 43
1126.707745 364.766788 2263.339043 178 151 150
962.339401 247.990084 2024.785233 110 94 79
963.957691 247.957039 2026.496696 119 99 86
947.908211 234.105444 2005.766678 189 160 153
988.803387 237.888765 2034.921074 182 150 140
949.058819 232.454324 2006.016731 133 109 121
1114.680862 352.274251 2229.042816 91 70 68
958.823204 237.949467 2018.158722 214 179 168
1114.942074 352.571440 2229.462242 88 69 64
978.684521 249.304700 2041.865921 170 143 137
966.741753 242.824888 2028.092957 192 160 155
950.499439 231.367826 2007.511520 195 163 157
893.466568 157.308245 1899.175453 184 151 139
970.068645 244.198561 2032.163620 141 106 116
1106.689930 352.542996 2222.498131 74 54 52
1107.908916 353.153515 2223.739815 118 94 89
886.991501 176.078701 1915.113640 139 104 111
1097.663403 323.051810 2186.838531 191 162 157
987.718296 218.943810 2018.504906 191 158 152
950.007725 228.670454 2006.333923 105 79 90
980.928898 248.301768 2044.027519 104 75 57
1093.725777 343.916011 2203.441429 68 52 49
978.678703 246.815991 2041.570091 131 105 112
935.441685 182.936513 1954.335213 146 114 95
1016.501713 241.837144 2058.629608 114 93 110
919.694996 174.192548 1936.976242 77 61 60
1095.376492 331.074786 2190.760231 58 49 42
1093.401814 342.640662 2200.748253 65 46 46
977.928543 245.549989 2040.352631 66 39 56
1092.752361 341.169381 2198.633575 122 104 97
913.528824 189.993870 1950.057983 154 124 129
1029.462337 252.931333 2077.103615 121 98 109
1079.200649 308.417058 2158.200073 82 45 34
981.015015 246.039009 2043.459702 103 88 96
917.173100 173.126996 1937.805176 108 92 78
921.609402 194.847763 1961.555481 145 113 108
912.983990 180.067110 1943.030548 50 37 29
982.593155 246.180558 2044.979477 67 50 63
1088.392544 331.255007 2184.293556 60 42 37
1088.392544 331.255007 2184.293556 60 42 37
1033.268642 255.187082 2083.287430 82 46 32
966.190147 201.438928 1994.345284 106 88 91
1069.939804 298.536515 2142.244339 125 94 105
1024.156284 254.260492 2077.697372 65 60 69
932.605171 201.686192 1977.052498 199 170 163
1039.917374 261.918187 2093.726540 94 78 85
985.404587 246.775985 2047.934723 106 88 98
1082.224369 325.784016 2173.906898 56 39 41
977.203560 238.099217 2035.963440 51 31 23
933.441544 187.844610 1965.247917 138 117 119
963.659096 232.036924 2022.586632 24 17 19
940.020943 188.106024 1969.260216 59 47 62
938.565826 202.724767 1982.141876 198 166 153
939.181805 189.345837 1970.424080 130 110 114
939.181805 189.345837 1970.424080 130 110 114
1033.573246 255.522609 2083.611107 116 96 99
936.871910 190.625727 1970.634079 137 113 123
1080.425930 317.679477 2164.660645 56 40 34
939.138699 191.863227 1973.516846 89 65 77
993.644142 250.124383 2056.292343 60 29 17
987.184143 246.559906 2049.573708 60 43 55
979.760647 239.146757 2039.096069 132 111 113
942.440796 193.674397 1977.400017 142 122 125
1078.220844 318.895221 2164.085007 71 50 44
1011.072636 249.409389 2066.243362 101 89 90
967.533016 232.982373 2026.848030 31 25 24
988.602734 247.126985 2051.166916 36 27 36
953.961182 196.454537 1986.879921 30 18 17
983.329582 243.108654 2044.873428 109 89 96
947.107506 204.443860 1991.051292 139 115 123
986.687851 245.225501 2048.934937 146 118 121
971.087646 233.886719 2030.718613 29 22 26
990.534973 247.309661 2053.058052 43 30 37
986.133575 243.561292 2047.643089 119 98 109
1011.668205 252.248549 2069.573402 56 38 50
991.524887 247.347879 2053.953171 94 83 97
950.519943 208.704376 1998.711967 82 70 66
991.870880 247.100067 2054.191971 91 79 87
992.710209 247.714520 2055.191994 94 79 89
963.084507 218.437314 2015.444756 185 155 142
977.595901 235.601902 2037.662506 29 22 24
